# .PCD v0.7 - Point Cloud Data file format
VERSION 0.7
FIELDS x y z power range vel azi_angle ele_angle
SIZE 4 4 4 4 4 4 4 4
TYPE F F F F F F F F
COUNT 1 1 1 1 1 1 1 1
WIDTH 241
HEIGHT 1
VIEWPOINT 0 0 0 1 0 0 0
POINTS 241
DATA ascii
26.121674 -6.7472143 0.22044164 5 26.979906 -2.8984079 -14.482914 0.46814528
26.357992 -5.672308 1.0864472 12 26.983313 -2.4069872 -12.144975 2.3075621
26.316891 -5.9679761 0.34993404 6 26.987366 -1.822648 -12.77707 0.74295157
26.360376 -5.7831516 0.059927974 6 26.987366 -1.822648 -12.373971 0.12723075
26.714958 -6.8675847 -0.12871563 8 27.583858 -3.2934079 -14.416799 -0.26736251
26.644039 -6.8214512 0.43639246 11 27.506863 -2.8849158 -14.360501 0.90902752
27.295036 -7.0154967 0.011282265 7 28.182199 -2.5675907 -14.414419 0.022937393
27.255665 -7.1622849 0.25840735 7 28.182199 -2.5675907 -14.723392 0.52536207
28.003475 -3.026185 1.1267742 15 28.189041 -1.5807128 -6.1677122 2.2908409
28.578009 -3.0914438 1.597756 25 28.789103 -1.5718713 -6.1739984 3.1814725
29.105486 -3.6615453 -0.23770414 26 29.335861 -1.5746508 -7.170289 -0.4642643
32.817139 -3.3210418 0.56689239 1 32.989624 -1.4964743 -5.7785683 0.98461688
32.847363 -3.0534921 0.20583557 0 32.989624 -1.4964743 -5.310955 0.35749379
33.322269 -4.2233534 0.01437893 3 33.588844 -1.6092587 -7.2233071 0.02452755
33.29974 -4.3890104 0.27283528 2 33.588844 -1.6092587 -7.5084844 0.46540698
33.785831 -4.6055269 -0.079977371 3 34.098381 -1.6090446 -7.7624497 -0.13438673
34.921074 -5.6957402 0.67796808 10 35.389015 -1.584733 -9.2635574 1.097716
35.651669 -5.8405209 0.56248057 21 36.131283 -1.5725226 -9.3036566 0.89199895
36.093498 -5.9784427 0.52689105 17 36.589069 -1.5767565 -9.4049482 0.82510102
41.282726 7.36236 0.77851325 12 41.941315 -1.4454794 10.111819 1.0635834
41.902958 7.506134 1.3050265 4 42.589939 -1.4516068 10.15576 1.7559128
43.24577 7.392736 0.40402019 7 43.874962 -1.4973955 9.7007742 0.52761251
46.1716 3.10513 0.70339245 16 46.281242 11.717309 3.8474591 0.87082732
46.659302 3.3426373 0.80971932 18 46.785889 11.715094 4.0976262 0.99166262
47.314224 3.9335141 0.60200101 10 47.481266 11.720937 4.7524118 0.72645581
46.806419 7.3725052 0.76640218 4 47.389683 -1.4885273 8.951149 0.92664737
48.620686 7.4201622 0.76956969 4 49.189655 -1.4918475 8.6771441 0.89642614
49.098068 7.5797114 0.8928861 6 49.687721 -1.4847846 8.7759848 1.029658
56.768814 -4.9942241 0.30602947 3 56.988895 -1.6023698 -5.0276399 0.30767891
57.150513 7.3538418 0.80873376 6 57.627373 -1.5120945 7.3322439 0.80410665
57.102573 7.7581897 0.14342195 6 57.627373 -1.5120945 7.7370653 0.14259683
57.707939 7.4187512 0.88648355 5 58.189602 -1.4999547 7.3255854 0.87290049
57.661636 7.8182874 0.1995699 5 58.189602 -1.4999547 7.7215919 0.19650479
58.918999 7.4109335 0.86868191 5 59.389603 -1.499866 7.1691127 0.83808577
58.880356 7.7582583 0.19526428 5 59.389603 -1.499866 7.5062294 0.18838044
59.468174 7.5188141 0.83517653 8 59.947426 -1.5072861 7.2059145 0.79826009
59.423717 7.9041967 0.19845304 7 59.947426 -1.5072861 7.5766754 0.18967524
61.326828 7.4905081 0.93314058 1 61.789631 -1.496243 6.9636602 0.86530781
64.888168 8.0704451 0.45456177 0 65.389702 -1.4855623 7.0897365 0.39829943
65.572563 7.9657693 0.36437398 9 66.055641 -1.5217667 6.9263649 0.31605473
66.155724 7.5646653 0.59980959 4 66.589516 -1.5133367 6.523231 0.51610261
67.429695 8.0309219 0.19230382 6 67.906525 -1.5061865 6.7919722 0.16225557
67.474823 7.5797338 0.99579287 6 67.906525 -1.5061865 6.4094086 0.84022522
67.912552 8.0602789 0.23494186 4 68.389603 -1.4997573 6.7685523 0.19683114
67.957832 7.6081104 0.99379927 4 68.389603 -1.4997573 6.3878584 0.83261937
68.845901 -10.144343 -0.16746311 4 69.58947 -1.5197425 -8.3821335 -0.13787918
68.753784 -10.731057 0.67552125 3 69.58947 -1.5197425 -8.8711243 0.55619228
69.215492 -10.803404 0.85270423 4 70.058723 -1.5229754 -8.8713531 0.69738013
69.295906 -10.310238 0.034928504 4 70.058723 -1.5229754 -8.4627085 0.028565407
71.54538 7.6446452 1.159656 2 71.961983 -1.5027337 6.0989308 0.92335242
73.388298 7.6462302 0.79934967 3 73.789879 -1.4605794 5.9481111 0.6206848
74.267357 -4.1477475 0.94065756 12 74.389038 -1.5808191 -3.1965835 0.72453076
74.694748 -4.207314 0.95749182 14 74.819275 -1.5799184 -3.2238796 0.73325676
75.453415 -4.4374981 0.8778528 2 75.58889 -1.6036 -3.3657508 0.66542041
77.674507 8.0806246 0.53314006 3 78.09552 -1.5028481 5.9392228 0.39114809
78.212326 7.6705189 0.56504893 2 78.589592 -1.5025578 5.6012578 0.41195273
81.768005 8.2220573 0.13270763 2 82.18045 -1.4993014 5.7419896 0.092523098
81.814217 7.685452 0.99737585 2 82.18045 -1.4993014 5.3664947 0.6953823
85.452507 11.598886 7.4473872 10 86.557083 -1.632093 7.7297964 4.935842
85.434944 11.027882 8.4489641 10 86.557083 -1.632093 7.3550296 5.6016445
85.900436 10.941883 8.2711449 8 86.988632 -1.6400084 7.2591672 5.4561
85.92025 11.442895 7.3343792 8 86.988632 -1.6400084 7.5860353 4.8365912
91.149376 -3.3381891 1.0474908 3 91.216499 -1.6081743 -2.0974219 0.65797442
97.33696 20.601913 4.3822012 3 99.58979 -1.4729156 11.950602 2.5219727
97.928413 20.937456 3.1036236 4 100.18974 -1.4807801 12.06835 1.7751617
98.533623 21.892265 1.5230193 12 100.94784 -1.4891682 12.526538 0.86446518
98.874374 22.389635 1.5599387 12 101.3897 -1.485209 12.759176 0.88156319
101.92844 -2.0822313 2.850631 2 101.98955 -1.508604 -1.1702963 1.6016387
102.42391 -2.1082397 2.5269322 4 102.47677 -1.5207071 -1.1791795 1.4129761
101.49366 24.912714 2.4430137 7 104.53504 -1.4656067 13.791204 1.3391405
103.88033 18.753004 2.5237536 14 105.58962 -1.4976439 10.23311 1.3695873
104.43209 19.061968 2.6104286 15 106.18961 -1.4992371 10.344309 1.4086275
103.53723 26.061024 2.2195952 14 106.7898 -1.4713817 14.128245 1.190962
104.27001 25.967407 2.0408614 25 107.47421 -1.4706569 13.984466 1.0880728
104.75551 26.138071 2.209543 20 107.9898 -1.4722714 14.010087 1.1723915
105.20617 26.428886 4.9900808 5 108.58971 -1.4852171 14.101498 2.6338711
105.04434 27.26256 3.7634683 4 108.58971 -1.4852171 14.549195 1.986137
107.60107 18.552387 -0.44984639 5 109.18967 -1.4900894 9.7826538 -0.23605137
106.49969 26.642704 1.3249092 11 109.78968 -1.488843 14.045246 0.69144523
106.9289 23.980511 13.191233 1 110.37601 -3.4612091 12.640346 6.8639269
107.01209 26.541946 2.0838301 17 110.27423 -1.4801602 13.929829 1.0827713
107.45473 24.853148 11.526372 5 110.89208 -3.4440632 13.022915 5.966228
107.67197 26.886889 1.6019067 5 110.98975 -1.4789743 14.020664 0.82697433
108.30592 26.566189 4.2901454 9 111.59901 -1.4785509 13.78189 2.203136
108.83282 27.231985 0.62618792 6 112.18982 -1.468554 14.048026 0.31979829
109.41986 27.359503 0.52607 15 112.78974 -1.4803925 14.038479 0.26723796
109.86213 26.923712 1.1721065 15 113.11917 -1.4845557 13.769986 0.59369206
114.44038 26.653744 4.5094457 7 117.58978 -1.4743223 13.110749 2.1977723
115.7793 26.496803 2.0186579 9 118.78973 -1.4812841 12.890504 0.97370493
116.35486 26.830061 2.6191471 17 119.43687 -1.4701633 12.98477 1.2565476
116.8299 27.163303 3.2391934 11 119.98985 -1.4657974 13.088897 1.5469197
118.10126 27.053106 2.6800189 21 121.18977 -1.4769964 12.901986 1.2671556
118.698 27.24441 2.7901464 27 121.81649 -1.4806852 12.92703 1.3124462
119.23322 27.492985 2.6110046 22 122.38972 -1.4831538 12.984408 1.2224139
119.40942 29.443935 -0.95479196 6 122.9897 -1.4862413 13.851653 -0.44480228
122.16145 27.729597 4.9274559 8 125.36599 -1.4830394 12.788937 2.2525661
123.688 22.15066 9.7114573 5 126.03049 4.3960724 10.153183 4.4193883
122.929 27.594984 0.63314569 7 125.98978 -1.475091 12.65197 0.28793392
123.00646 27.215528 1.4659319 6 125.98978 -1.475091 12.475869 0.66667002
123.44121 27.792692 3.0067368 9 126.567 -1.4860806 12.688521 1.3612516
124.04514 22.211773 12.204618 6 126.60771 4.3850827 10.151909 5.5317378
123.91096 28.100172 5.8041482 6 127.18976 -1.4777946 12.777262 2.6155307
124.87395 29.118958 6.5205331 3 128.38977 -1.4777293 13.12606 2.911134
128.06996 19.617294 2.5923386 5 129.58963 -1.4955273 8.7086716 1.1462334
128.73643 19.657043 2.2120919 14 130.24731 -1.5083971 8.6815605 0.97314578
129.2534 19.818865 2.584621 10 130.78957 -1.5056176 8.7174606 1.1323344
9.4176044 3.9753146 -0.57330483 23 10.238315 6.4022269 22.885349 -3.2100143
9.1360502 4.6111526 0.30486244 22 10.238315 6.4022269 26.781017 1.7063271
9.155036 4.5638204 0.42420322 21 10.238315 6.4022269 26.496429 2.3746109
9.6621971 3.7261851 0.56186926 22 10.371027 6.407217 21.088921 3.1056237
9.2190876 4.744894 0.22933872 22 10.371027 6.407217 27.234043 1.2671081
9.4204035 4.8118296 -0.13465226 17 10.579028 6.2885227 27.057402 -0.72929329
10.249316 4.6070442 -0.21873656 16 11.23927 6.418396 24.203808 -1.1151501
10.435743 4.6571941 -0.29229367 9 11.43152 6.415194 24.049932 -1.4651612
10.302238 5.3133068 0.039558269 14 11.59176 6.2724838 27.282104 0.19552909
10.456636 5.4075689 0.03748595 8 11.77219 6.2770028 27.345396 0.18244611
12.806127 3.5137231 -0.010175954 5 13.279428 6.7361031 15.34313 -0.043905448
13.220112 3.9743576 -0.031970464 10 13.804633 6.6282492 16.732336 -0.13269272
13.252602 3.8628616 0.12138581 10 13.804633 6.6282492 16.25032 0.50381523
13.569176 3.3839917 0.34228802 5 13.988963 6.7780852 14.003244 1.4020779
23.683535 -8.6548519 0.54725176 8 25.221336 -3.4412243 -20.0742 1.2432996
23.801575 -8.6806049 0.48665759 10 25.339785 -3.4515848 -20.037275 1.100449
26.627478 -4.8681164 -0.90141809 8 27.083826 -2.9790184 -10.360569 -1.9073004
26.542933 -5.6916103 0.65118122 12 27.15411 -2.372592 -12.10268 1.3741387
26.838083 -4.8172746 -0.15484278 4 27.267431 -3.0706265 -10.175889 -0.32536563
26.669266 -5.6227813 0.84450096 10 27.268637 -2.3716395 -11.905524 1.7747158
26.651403 -6.4661927 0.87089169 7 27.438429 -2.7557509 -13.637648 1.8188651
26.743633 -6.7204571 0.58829409 10 27.581381 -2.7799459 -14.105886 1.2221768
26.674744 -7.0996504 1.0127473 4 27.62196 -2.4176085 -14.904112 2.1011961
26.852491 -6.9922986 1.3331447 3 27.779953 -2.3998127 -14.595501 2.7506495
28.704605 -2.9960501 0.85683852 25 28.873255 -1.5478516 -5.9586849 1.7005509
28.80084 -3.0080938 0.99530125 24 28.974604 -1.5469809 -5.9626193 1.968544
28.920818 -3.5931597 0.33207169 22 29.145065 -1.5435262 -7.0822101 0.6528281
29.111685 -3.5043809 0.11139325 28 29.322062 -1.5464687 -6.8640733 0.21766472
29.253771 -3.6493859 -0.56681973 20 29.48597 -1.5457454 -7.1108699 -1.1014858
29.340784 8.3267412 0.74786323 10 30.508614 -1.5947852 15.843629 1.4046426
29.626175 -7.9634385 0.29613593 6 30.679216 -1.508357 -15.045333 0.55306506
29.685383 8.3673534 0.68562418 5 30.84971 -1.4847369 15.741434 1.2734838
29.833673 8.4645386 0.74367058 5 31.020147 -1.4962554 15.839929 1.3737288
33.638725 -4.4170732 0.81598932 6 33.937298 -1.5968275 -7.4806638 1.3777541
33.602226 -4.6057734 1.1905307 6 33.937298 -1.5968275 -7.8047547 2.0103657
33.753723 -4.5043921 1.5516497 4 34.088284 -1.521193 -7.60114 2.608923
33.802528 -4.2498364 1.1572111 4 34.088284 -1.521193 -7.165936 1.9454206
35.499615 -5.7246237 0.60099024 15 35.963245 -1.5427871 -9.1605844 0.95752776
35.65015 -5.7834072 0.529688 21 36.120098 -1.5456161 -9.2146311 0.84025174
35.826252 -5.8485546 0.51771629 13 36.304188 -1.526629 -9.2716208 0.8170948
41.256828 7.3893857 0.84342217 12 41.921837 -1.48283 10.154405 1.1528071
41.433746 7.4175673 0.78101397 5 42.099712 -1.4845304 10.149708 1.0629852
43.02232 7.4441938 0.44514114 6 43.663876 -1.4851894 9.8167448 0.58412474
43.164959 7.4336658 0.58236963 4 43.804249 -1.4918218 9.7713614 0.76175952
46.447975 3.131274 0.30013537 10 46.554371 11.757068 3.8567393 0.36938763
46.585022 3.206743 0.6823886 15 46.700249 11.750605 3.9378204 0.83724135
46.72084 3.9394221 0.89947295 6 46.895256 11.744401 4.8196826 1.0990273
47.327259 3.4131002 0.55632019 11 47.45343 11.720982 4.1248593 0.67172235
47.453869 3.3708842 0.58601511 10 47.577053 11.730392 4.063179 0.70574027
46.985382 7.4618602 0.62613994 3 47.578331 -1.4863329 9.0239172 0.75404519
49.000366 7.5849752 0.86810178 6 49.591545 -1.4844837 8.799221 1.0030159
57.307323 7.5560374 0.44126815 6 57.804996 -1.4965005 7.511189 0.43738517
59.166328 7.5754728 0.92638278 4 59.656521 -1.4906769 7.2962761 0.88975954
59.123116 7.9554772 0.26050621 4 59.656521 -1.4906769 7.6635642 0.25019819
59.309101 7.5982718 1.0913343 7 59.803799 -1.4968724 7.300571 1.0456246
63.287987 7.6168189 0.7010259 3 63.748543 -1.4913149 6.8626394 0.63007927
65.530647 7.9748707 0.097598135 7 66.014191 -1.4962788 6.9385943 0.084708504
65.648186 7.9994478 0.040613413 7 66.133781 -1.4991322 6.9474292 0.035185911
65.416618 -10.799038 0.54152286 2 66.304199 -1.5157866 -9.3739004 0.46795407
68.932404 -10.397447 0.40105009 2 69.713295 -1.5155926 -8.5775719 0.3296158
69.46611 7.5560942 1.0526266 3 69.883781 -1.4974813 6.2078743 0.86305207
69.419258 8.0409632 0.22942376 2 69.883781 -1.4974813 6.607233 0.18809853
69.608711 7.5604143 1.0096775 4 70.025368 -1.4959903 6.19877 0.82616156
69.565559 8.0090866 0.19857992 3 70.025368 -1.4959903 6.5675507 0.16248122
74.539757 -4.0303216 1.0797579 10 74.656441 -1.5331578 -3.0949361 0.82869911
74.660805 -4.1195345 0.79325134 10 74.77858 -1.5356441 -3.1581876 0.60780513
9.4521275 4.3595881 0.26108328 22 10.412343 6.4522758 24.760485 1.436808
9.7402153 3.8693106 0.24604179 24 10.483506 6.5525475 21.665501 1.344822
9.4830418 4.9162312 0.057025108 15 10.681791 6.423903 27.403282 0.30587694
10.343687 5.2526097 0.0089514907 7 11.600942 6.2993951 26.921837 0.044210434
10.428916 5.3010502 -0.053479869 13 11.698986 6.3528275 26.944372 -0.26191854
12.931127 3.5080907 0.24288739 4 13.400736 6.7554669 15.178465 1.0385388
13.036759 3.4934585 0.3404502 2 13.501009 6.7497816 15.001105 1.4449607
13.205168 3.6514421 0.091379605 4 13.701015 6.7971158 15.456982 0.38213989
13.316596 3.5013394 -0.12503599 11 13.769776 9.5225096 14.731378 -0.52027953
13.495699 3.2923975 0.51424366 15 13.901015 6.791883 13.710021 2.1200407
13.526015 3.4342103 0.48272255 17 13.963521 6.7755785 14.24618 1.9811248
23.653486 -8.7185879 0.44061974 5 25.212999 -3.2909968 -20.233702 1.001346
26.45323 -4.8259697 0.72320843 7 26.899561 -2.9316947 -10.339 1.540612
26.412733 -4.9857707 1.046913 7 26.899561 -2.9316947 -10.689596 2.2304769
26.556688 -4.851676 0.68105179 13 27.00482 -2.9399309 -10.353264 1.445132
26.516232 -5.0201039 0.97383499 13 27.00482 -2.9399309 -10.720466 2.0666213
26.669104 -4.751667 0.75288552 8 27.099562 -2.9366808 -10.102449 1.5920079
26.623331 -4.9416442 1.0791888 7 27.099562 -2.9366808 -10.515191 2.2822995
26.484932 -5.6856837 0.78235537 11 27.099644 -2.387356 -12.116145 1.654335
26.559109 -5.7268095 0.69078195 14 27.178297 -2.3958147 -12.168107 1.4564251
26.695026 -5.6924505 0.49181184 5 27.299639 -2.4268026 -12.037467 1.0322579
26.816187 -5.6158419 0.30773038 3 27.399639 -2.4165494 -11.82794 0.64351296
26.863367 -5.3943858 0.017361304 3 27.399639 -2.4165494 -11.354454 0.036304474
26.659174 -6.6276746 1.2615017 4 27.499619 -2.555799 -13.961136 2.6292763
26.658092 -6.7346053 0.43941474 5 27.499125 -1.6574831 -14.177922 0.91558123
26.692463 -6.8005772 1.2306163 6 27.572628 -2.5820506 -14.293457 2.5580642
28.472555 -2.9701169 2.0418317 7 28.699774 -1.519784 -5.9552751 4.0797276
28.635931 -2.9480934 0.84796864 23 28.799772 -1.5347195 -5.8779407 1.6872371
28.706404 -2.977756 0.75433308 25 28.870291 -1.535078 -5.9221916 1.4972146
28.752117 -3.1983838 2.0181248 13 28.999771 -1.5285583 -6.3474832 3.9904993
28.878649 -3.510905 0.70275331 15 29.099771 -1.5262008 -6.931684 1.3838154
28.980204 -3.5335057 0.53742486 22 29.199772 -1.5306115 -6.9516611 1.0545944
29.098467 -3.4863842 -0.0012619409 26 29.30658 -1.532609 -6.8322296 -0.0024671555
29.192616 -3.4835107 -0.053796984 23 29.399771 -1.5322099 -6.804842 -0.10484238
29.420853 -3.3244672 0.63988554 19 29.614998 -1.540586 -6.4469037 1.2380753
29.157612 8.2200785 0.58270478 5 30.299763 -1.5991378 15.744142 1.1019421
29.224648 8.3416843 0.80282605 14 30.402439 -1.6132164 15.930505 1.5131645
29.313875 8.3886433 0.75006533 8 30.499758 -1.6216922 15.969337 1.4091886
33.594986 -4.4532275 0.77781171 8 33.897778 -1.5297823 -7.5508966 1.314813
35.53347 -5.752357 0.51620311 15 35.999771 -1.5290847 -9.1955862 0.82159615
35.622185 -5.7998261 0.55242819 22 36.095474 -1.531909 -9.2474689 0.87692547
35.725735 -5.8120995 0.5613758 14 36.199776 -1.5168071 -9.240304 0.8885622
33.099339 -19.70682 0.43809047 11 38.524239 -1.4092422 -30.768894 0.65157098
33.217518 -19.511641 0.097130202 11 38.524239 -1.4092422 -30.429556 0.14445858
33.169758 -19.734673 0.50392419 8 38.599792 -1.4157801 -30.750946 0.74802345
33.276878 -19.559122 0.18451639 8 38.599792 -1.4157801 -30.445698 0.2738888
35.598988 21.321989 3.197768 8 41.618996 -1.2412076 30.919472 4.4066262
35.668491 21.386778 3.0395689 5 41.699814 -1.2449584 30.946844 4.1800919
41.117744 7.4619975 0.93350345 4 41.799782 -1.4466949 10.28602 1.2796779
41.223442 7.4545088 0.86007029 11 41.900856 -1.4732127 10.250129 1.176154
41.322147 7.4718843 0.79527062 5 41.999779 -1.4767289 10.249494 1.084967
36.507538 21.742725 0.82919407 9 42.499813 -1.2501922 30.776678 1.1179422
36.60218 21.730896 0.55464971 9 42.570637 -1.2479048 30.697815 0.74652368
46.750175 2.1651175 -0.37189302 4 46.801762 11.792857 2.6516161 -0.45528468
47.439018 3.931823 0.087700307 10 47.601757 11.746797 4.7379384 0.1055604
47.458076 3.6428528 0.62293786 10 47.601757 11.746797 4.3893819 0.74981958
47.534489 3.5117166 0.52598751 10 47.666931 11.744542 4.2251782 0.63225126
47.514534 3.8086057 -0.0089884792 10 47.666931 11.744542 4.5828395 -0.010804176
236.80466 9.0981169 0 16 236.97937 -1.5759964 2.2002416 0
236.24219 -18.677536 0 14 236.97937 -1.5759964 -4.5204568 0
238.09167 9.1255999 0 19 238.26649 -1.5710602 2.1949635 0
237.52567 -18.774441 0 18 238.26649 -1.5710602 -4.5193615 0
239.75447 10.389678 0 11 239.97948 -1.5681381 2.4813406 0
239.23619 -18.873037 0 10 239.97948 -1.5681381 -4.5106487 0
241.6432 37.841125 0 13 244.5882 -1.568573 8.9001875 0
244.51135 6.1304693 0 12 244.5882 -1.568573 1.4362378 0
243.56212 34.399502 0 13 245.97932 -1.5796356 8.0390005 0
274.28653 9.7441978 0 16 274.45956 -1.5729218 2.0346122 0
299.84799 31.323355 0 10 301.47964 -1.5553284 5.9637218 0
