# .PCD v0.7 - Point Cloud Data file format
VERSION 0.7
FIELDS x y z power velocity mode
SIZE 4 4 4 4 4 4
TYPE F F F F F F
COUNT 1 1 1 1 1 1
WIDTH 456
HEIGHT 1
VIEWPOINT 0 0 0 1 0 0 0
POINTS 456
DATA ascii
74.843094 14.276073 -1.6356798 50.731735 -10.738802 0
78.962654 13.637289 -2.1354616 52.844566 -10.750093 0
81.133972 12.957607 -2.5625811 48.39407 -10.753029 0
83.012817 13.942038 -1.6912071 52.074112 -10.755875 0
86.97805 13.660001 -2.1055756 59.92767 -10.756322 0
90.944221 13.972317 -2.1089587 62.50058 -10.772653 0
94.705681 15.049612 -2.2215145 51.688351 -10.786421 0
95.087387 14.202616 -2.1670666 51.583561 -10.784834 0
96.779297 13.570657 -2.5260253 50.596588 -10.795586 0
98.766693 14.280935 -2.2496085 51.48732 -10.781599 0
98.941643 13.025914 -2.1775434 255 -10.779503 0
99.262962 13.238979 -2.2475069 50.056404 -10.779503 0
99.106964 14.369825 -2.1851346 255 -10.781599 0
102.96797 13.468821 -2.7824697 61.631844 -10.801195 0
102.89565 13.54647 -4.5312872 255 -10.801195 0
106.81293 14.417037 -2.4448357 54.204788 -10.801271 0
106.66816 15.466147 -2.351846 255 -10.801271 0
107.00426 15.643291 -2.3100226 49.426651 -10.787748 0
106.80922 16.916918 -2.3596365 255 -10.787748 0
110.82612 14.412845 -2.5982561 59.92403 -10.81316 0
110.98828 13.136329 -2.4386766 255 -10.81316 0
114.87157 13.884705 -2.6362419 59.522778 -10.818846 0
114.72024 15.103206 -2.5248046 255 -10.818846 0
118.88855 13.975811 -3.0055566 59.45385 -10.829048 0
119.06059 12.513773 -2.6122215 255 -10.829048 0
122.88291 13.624681 -3.1219525 56.601711 -10.82328 0
122.78885 14.533018 -2.6979632 255 -10.82328 0
126.85337 13.952512 -2.9302647 61.985268 -10.83679 0
126.73702 15.000315 -2.784714 255 -10.83679 0
130.92407 13.738805 -2.9756122 57.132168 -10.830101 0
135.01622 13.544318 -3.294024 55.434414 -10.826319 0
135.13228 12.416912 -2.9610186 255 -10.826319 0
142.99841 13.40677 -3.1901679 57.990021 -10.861359 0
142.83995 15.013083 -3.1339467 255 -10.861359 0
151.00278 14.042674 -3.3822548 72.109802 -10.845057 0
150.82516 15.852364 -3.3091445 255 -10.845057 0
175.11606 13.390871 -3.9514849 54.456306 -10.879158 0
175.25391 11.486748 -3.8322592 255 -10.879158 0
179.05959 13.704425 -3.9690604 60.147686 -10.870235 0
179.19987 11.74538 -3.918545 255 -10.870235 0
183.04353 13.487321 -4.4146905 61.216778 -10.871246 0
183.15617 12.004689 -4.0050569 255 -10.871246 0
187.01549 14.280258 -4.4797535 60.750534 -10.869316 0
187.16716 12.267584 -4.0927649 255 -10.869316 0
178.97189 -69.135384 -0.31860712 62.865486 -10.16852 0
178.20256 -71.095612 0 255 -10.16852 0
191.08459 13.911904 -4.1962051 55.536873 -10.882931 0
191.1805 12.530631 -4.1805239 255 -10.882931 0
194.97675 15.106459 -4.3815498 60.573166 -10.876236 0
195.14488 12.790472 -4.2672129 255 -10.876236 0
199.04575 13.964866 -4.5838947 60.483238 -10.877837 0
198.92506 15.655742 -4.3539824 255 -10.877837 0
178.73105 -69.715584 -0.46340376 58.290081 -10.274513 0
178.18932 -71.090324 0 255 -10.16852 0
203.04752 14.055268 -4.5947866 63.287998 -10.873838 0
202.90936 15.969314 -4.4411888 255 -10.873838 0
207.11093 13.409931 -4.7683315 57.224937 -10.885181 0
211.0085 14.319253 -4.6506724 64.050186 -10.875231 0
210.84261 16.593674 -4.6148281 255 -10.875231 0
211.23053 14.137918 -4.8167701 62.782597 -10.875748 0
211.0549 16.61038 -4.6194749 255 -10.875231 0
215.04102 13.493073 -4.7086725 60.010143 -10.876665 0
215.16879 11.276519 -4.7014427 255 -10.876665 0
215.24658 14.05526 -4.753427 59.16441 -10.881615 0
202.54303 -74.678474 4.2724357 56.808453 -10.256968 0
203.48096 -72.056389 4.7101369 255 -10.256968 0
202.85149 -74.699463 4.6007042 56.413403 -10.256376 0
203.76685 -72.157623 4.7167544 255 -10.256968 0
202.08691 -80.873711 0.30418649 59.814842 -10.156054 0
201.09988 -83.298302 0 255 -10.156054 0
226.90614 15.272057 -6.6319404 55.698486 -10.882111 0
226.81297 14.866108 -9.9241171 255 -10.882111 0
227.20174 14.869071 -5.637166 56.68399 -10.879761 0
212.51918 -73.42347 -9.8068581 57.982025 -10.308091 0
211.94809 -75.054756 -9.8169384 255 -10.308091 0
231.03381 14.45579 -5.3602242 67.786552 -10.875347 0
231.17531 12.115385 -5.0511856 255 -10.875347 0
231.23524 14.593483 -5.3821387 66.556732 -10.876987 0
231.3851 12.12638 -5.0557699 255 -10.875347 0
235.05211 13.853679 -5.267261 65.360336 -10.877256 0
234.95872 15.400009 -5.1378183 255 -10.877256 0
235.24036 14.673677 -5.3291936 64.019157 -10.877073 0
235.37868 12.335673 -5.1430292 255 -10.877256 0
238.84047 15.870682 -6.0400991 53.895931 -10.895559 0
238.64845 18.78204 -5.2234297 255 -10.895559 0
239.05566 15.186623 -10.223491 51.61842 -10.899662 0
239.19917 12.535897 -10.457994 255 -10.895559 0
242.99521 14.90169 -5.8886743 64.051483 -10.877218 0
243.1313 12.741972 -5.3124247 255 -10.877218 0
243.20595 15.21714 -6.080833 61.906326 -10.88117 0
243.36542 12.754241 -5.3175397 255 -10.877218 0
243.02258 -51.629944 -6.2471523 60.918663 -10.667241 0
242.86273 -51.622066 -10.840507 255 -10.667241 0
255.65085 18.399506 -11.230099 56.266232 -10.874882 0
255.5237 20.110151 -11.190904 255 -10.874882 0
257.20563 21.10327 0.10789862 57.63179 -10.881001 0
256.98734 23.613817 0 255 -10.881001 0
257.17789 -34.094803 0.54619813 58.522305 -10.811953 0
256.74393 -37.226097 0 255 -10.811953 0
257.89957 -29.507698 -9.7174606 55.862885 -10.812559 0
258.09509 -27.126886 -11.330746 255 -10.812559 0
257.07825 -44.594261 -5.8336201 58.13625 -10.764387 0
256.55133 -47.548977 -5.693305 255 -10.764387 0
257.04285 -46.968151 -6.1015129 57.267284 -10.750014 0
257.53345 -44.252342 -5.7017555 255 -10.764387 0
260.57803 -26.69943 -5.9545565 67.139328 -10.845881 0
260.84872 -23.968632 -5.7157178 255 -10.845881 0
267.97937 16.619987 -2.417928 58.595451 -10.876245 0
268.90811 13.907547 -5.9100032 57.778252 -10.895275 0
269.06067 10.571423 -5.8754544 255 -10.895275 0
269.39694 12.49888 -6.1697564 54.986397 -10.88242 0
269.48517 10.588101 -5.8847241 255 -10.895275 0
272.23215 -22.841812 -6.3670969 58.082512 -10.874363 0
272.05182 -24.998051 -5.9611998 255 -10.874363 0
276.92493 16.969633 -5.8075118 69.195847 -10.875215 0
277.0589 14.520041 -6.0537429 255 -10.875215 0
276.83908 21.66733 -6.351006 64.519112 -10.871584 0
277.37482 11.123697 -9.4423389 63.317493 -10.871584 0
293.10779 18.139841 -7.6268277 54.599098 -10.887858 0
293.29517 15.370949 -6.4085059 255 -10.887858 0
296.00818 18.208124 -6.6022515 51.293446 -10.875446 0
298.88034 16.261482 -6.1863465 55.464268 -10.887741 0
298.67422 19.576143 -6.5310783 255 -10.887741 0
298.50662 -25.011524 -18.516317 53.689018 -10.861263 0
298.22543 -27.403067 -19.629072 255 -10.861263 0
298.92667 -62.411446 6.4892445 59.192104 -10.668074 0
299.50116 -59.574482 6.6631694 255 -10.668074 0
308.13412 -16.413155 -13.694918 56.53405 -10.872186 0
307.92001 -20.182144 -13.472925 255 -10.872186 0
316.33411 -21.305563 -6.8396878 62.876907 -10.869558 0
316.07172 -24.875383 -6.9180355 255 -10.869558 0
316.51102 -22.138533 -6.8410501 60.039497 -10.874124 0
316.30447 -24.893702 -6.9231296 255 -10.869558 0
318.20102 -16.546309 -0.14005411 55.329342 -10.875961 0
318.38528 -12.509393 0 255 -10.875961 0
99.443024 13.212862 -2.2331195 255 -10.779503 0
99.627159 14.417043 -2.2479353 255 -10.781599 0
103.46592 13.559617 -3.3114953 255 -10.801195 0
175.67039 12.87062 -3.9279959 255 -10.801271 0
107.46487 16.094007 -2.335779 255 -10.787748 0
111.39055 14.104284 -2.5633597 255 -10.871246 0
115.3436 14.305764 -2.6152682 255 -10.818846 0
119.45559 13.606299 -2.9028184 255 -10.829048 0
123.37142 13.949158 -3.0102987 255 -10.82328 0
127.33418 14.317409 -2.899322 255 -10.83679 0
199.52383 14.497594 -4.5281491 255 -10.877837 0
179.26767 -69.912994 -0.22590922 255 -10.16852 0
203.52129 14.653104 -4.5612659 255 -10.873838 0
211.4747 15.02223 -4.6514378 255 -10.875231 0
211.68707 15.037316 -4.6561089 255 -10.875231 0
215.59334 12.874367 -4.7177696 255 -10.876665 0
203.3596 -74.10759 4.4123607 255 -10.256968 0
203.64465 -74.211464 4.4185452 255 -10.256968 0
202.3409 -81.803726 0.21563549 255 -10.156054 0
227.39545 15.187574 -7.613853 255 -10.882111 0
212.8891 -74.088409 -9.8345699 255 -10.308091 0
231.59039 13.800759 -5.2813673 255 -10.875347 0
231.79994 13.813247 -5.2861462 255 -10.875347 0
235.53822 14.338007 -5.240736 255 -10.877256 0
235.82991 13.448126 -5.2460399 255 -10.877256 0
239.29849 16.759686 -5.8132191 255 -10.895559 0
239.68913 14.940394 -7.3560443 255 -10.895559 0
243.54967 14.299126 -5.7318964 255 -10.877218 0
243.78333 14.312845 -5.7373958 255 -10.877218 0
243.50607 -51.740322 -7.6096001 255 -10.667241 0
256.12662 18.938658 -11.241079 255 -10.874882 0
257.65549 21.882504 0.076436006 255 -10.881001 0
257.56979 -35.082977 0.38693586 255 -10.811953 0
258.47623 -28.868 -10.210582 255 -10.812559 0
257.44351 -45.551937 -5.8041439 255 -10.764387 0
257.99936 -44.630474 -5.8127737 255 -10.764387 0
261.17419 -25.950668 -5.8961773 255 -10.845881 0
269.46811 12.95483 -5.9110899 255 -10.895275 0
269.89374 12.975292 -5.9204264 255 -10.895275 0
272.69287 -23.517868 -6.2599177 255 -10.874363 0
277.4791 16.282104 -5.8905406 255 -10.875215 0
293.67734 17.35903 -7.2825546 255 -10.887858 0
299.33533 17.262421 -6.2981162 255 -10.887741 0
298.93875 -25.756697 -18.874716 255 -10.861263 0
299.62024 -61.688347 6.5516291 255 -10.668074 0
308.58884 -17.546873 -13.652555 255 -10.872186 0
316.77423 -22.388069 -6.8737717 255 -10.869558 0
317.00668 -22.404499 -6.8788157 255 -10.869558 0
318.77332 -15.388504 -0.099177867 255 -10.875961 0
10.634831 14.198252 0.10402203 55.221085 -6.4336596 1
10.791327 14.078029 0.23916073 54.671028 -6.4336596 1
8.319212 13.464383 -0.68430096 55.782246 -5.6297083 1
12.217217 13.280745 -0.78893042 66.182838 -7.2514391 1
12.421706 13.089746 -0.78788376 255 -7.5437689 1
15.909845 13.294364 -1.3654437 65.010406 -8.2669964 1
15.765931 13.465378 -1.35895 255 -8.2669964 1
16.143742 13.072945 -0.45327097 255 -8.2669964 1
16.058634 13.179253 -0.3940756 64.075073 -8.2669964 1
16.283199 13.836031 0.44247395 50.934986 -8.0599165 1
14.439869 14.018827 0.46468461 56.318211 -7.6468515 1
14.598967 13.853902 0.43915334 255 -7.6468515 1
14.231311 14.231311 0.43915334 255 -7.6468515 1
14.40608 14.033782 0.87809765 255 -7.6468515 1
14.427327 14.13454 0.76419729 56.832043 -7.6750102 1
14.2783 14.2783 0.88162649 255 -7.6468515 1
14.474309 14.100247 0.44091818 255 -7.6468515 1
14.64717 13.899646 0.88162649 255 -7.6468515 1
14.657636 13.909576 0.44091818 255 -7.6468515 1
12.954742 13.191658 -0.88077074 55.279282 -7.5437689 1
13.076105 13.076105 -0.80739588 255 -7.5437689 1
12.714179 13.397949 -1.2106135 255 -7.2514391 1
12.888463 13.230377 -1.2106135 255 -7.5437689 1
12.729332 13.413918 -0.80739588 255 -7.5437689 1
13.86706 13.896088 0.30640048 55.469917 -7.4723454 1
18.655005 14.282611 0.75638056 52.576122 -8.5980425 1
18.631527 14.296474 1.0253565 255 -8.5980425 1
18.758718 14.311069 1.012311 50.565163 -8.6067486 1
18.45709 13.946005 0.57055467 52.606277 -8.5023308 1
18.354191 14.083666 0.5048064 255 -8.5980425 1
17.372517 14.330165 0.98491454 53.132149 -8.3576899 1
17.501514 14.172446 0.98325491 255 -8.3576899 1
17.124525 14.625726 0.98325491 255 -8.3576899 1
16.72225 13.942235 0.46895111 57.083912 -8.1839752 1
16.55545 14.13969 0.47506362 255 -8.3576899 1
16.427691 14.362645 -1.8765087 255 -8.1839752 1
19.887167 13.233447 -0.50417942 69.456856 -8.972847 1
20.033627 13.00999 -0.52122408 255 -8.972847 1
19.686199 13.52995 -0.52122408 255 -8.972847 1
23.769896 13.292364 -0.7232278 64.26442 -9.4391155 1
23.554846 13.581116 -1.7147691 63.576832 -9.4391155 1
23.747375 13.29917 -1.1883525 255 -9.4391155 1
23.942209 12.999559 0 255 -9.4391155 1
24.034721 12.82771 -0.0032916258 63.070358 -9.4391155 1
27.793108 13.24242 -0.83290434 69.700272 -9.7722702 1
27.771297 13.246229 -1.3433867 255 -9.7722702 1
27.615248 13.618333 -0.67185318 255 -9.7722702 1
27.962271 12.890783 -0.67185318 255 -9.7722702 1
27.042156 13.337967 -1.2492089 58.601746 -9.6853657 1
26.863621 13.687699 -1.3163664 255 -9.6853657 1
27.212719 12.979801 -1.3163664 255 -9.7722702 1
25.325903 14.183187 0.6333704 255 -9.4443188 1
25.331932 14.186563 0 255 -9.4443188 1
25.382591 14.032656 -1.3318783 54.637482 -9.4443188 1
25.515457 13.853763 0 255 -9.4443188 1
25.411028 14.230859 0.6354993 255 -9.4443188 1
25.774839 13.5608 0.6354993 255 -9.6853657 1
34.75647 -1.2246745 -0.15858246 255 -0.21033001 1
29.589277 13.632151 0.10428966 57.123032 -9.7641792 1
29.401163 14.021723 0.57848161 56.700584 -9.7641792 1
29.781281 14.22242 -0.022876158 58.813454 -9.7875633 1
29.59955 14.596883 0 255 -9.7641792 1
29.659309 14.313039 -2.1598094 56.292259 -9.7875633 1
30.838322 13.873682 -0.051183727 57.549736 -9.824666 1
30.655512 14.100486 -2.2135386 57.068218 -9.824666 1
30.709259 14.157162 0 255 -9.7641792 1
30.825798 13.724529 -2.2116354 255 -9.7641792 1
31.133665 13.358245 0.065359339 56.276489 -9.8366261 1
28.31905 13.992107 -1.2915175 64.81472 -9.7126045 1
28.141058 14.338585 -1.3789631 255 -9.7875633 1
28.506756 13.597025 -1.3789631 255 -9.7641792 1
29.141823 13.708076 0.022892715 58.037712 -9.7171211 1
29.246691 13.482909 0 255 -9.7641792 1
29.545555 14.562736 -2.8863854 255 -9.7641792 1
34.695763 -0.72677583 -2.2832112 75.359627 -0.21033001 1
34.700966 -0.4542605 -2.2746162 255 -0.21033001 1
34.775421 -0.45523518 0 255 -0.21033001 1
35.627659 -0.91546023 -0.086324945 255 -0.21033001 1
35.680866 -0.269126 -1.6608262 255 -0.21033001 1
34.82621 0 -1.5205452 255 -0.21033001 1
35.630905 -1.0207834 -2.3133717 255 -0.21033001 1
34.321701 14.015038 -0.010989216 59.234917 -10.039003 1
34.433674 13.737642 0 255 -10.039003 1
31.762682 13.097725 -1.4092155 72.666916 -9.9904728 1
31.907743 12.729899 -1.4999008 255 -9.8366261 1
31.964668 13.683963 0.1898341 56.253246 -9.9314098 1
31.950113 13.633055 -1.5352603 55.729794 -9.9314098 1
31.939747 13.722398 0.7585268 255 -9.9904728 1
32.500248 13.737812 -0.15431389 58.47916 -9.9485188 1
32.598911 13.502911 0 255 -9.9904728 1
32.411655 13.925145 -0.76973397 255 -9.9904728 1
32.644829 13.631894 -0.19410123 56.683308 -9.9588261 1
32.504322 13.964958 0 255 -9.9904728 1
32.582718 13.775387 -0.3950533 55.578693 -9.9588261 1
32.676556 13.535071 -0.77175099 255 -9.9904728 1
32.765232 13.645819 -2.284059 55.09338 -9.9644527 1
32.608349 14.009652 -2.3261695 255 -9.9904728 1
32.881451 13.55713 -0.011417609 53.92955 -9.9644527 1
33.418797 14.392916 -2.9898922 255 -10.039003 1
33.67001 14.041787 -3.1024618 255 -10.039003 1
35.163609 -0.86175662 -0.97428572 66.917809 -0.19603825 1
35.14212 -0.92022878 -1.5348641 255 -0.19603825 1
35.151154 -0.46015382 -1.5348641 255 -0.19603825 1
35.17627 -0.4604826 -0.76761466 255 -0.19603825 1
35.250237 -0.77206475 -1.2229576 64.251961 -0.19579029 1
35.259411 -0.92330015 -0.7696268 255 -0.19603825 1
35.268475 -0.46168962 -0.7696268 255 -0.19603825 1
35.243294 -0.46135998 -1.5388873 255 -0.19603825 1
35.684731 -0.87648511 0.053870294 63.691753 -0.2024498 1
35.692474 -0.4672401 0 255 -0.19603825 1
36.218521 -1.0139158 0.12141291 62.362457 -0.20176601 1
36.204979 -1.4224975 0 255 -0.19603825 1
36.641361 -1.0994047 0.05136811 58.292061 -0.19264317 1
36.629623 -1.4391819 0 255 -0.19603825 1
39.623249 -0.28323105 -0.67126071 57.425213 0 1
39.620518 0 -0.86452276 255 0 1
39.629948 0 0 255 0 1
39.626553 -0.51874 0 255 0 1
39.689667 -0.50517935 -0.75183672 56.402889 0 1
39.690552 0 -0.86605096 255 0 1
35.726368 13.081844 -0.8671028 74.520576 -10.159907 1
35.864639 12.700335 -0.8301875 255 -10.159907 1
37.806301 13.505458 -0.87564629 55.177769 -10.191652 1
37.664768 13.895267 -0.87599206 255 -10.191652 1
38.154987 14.676342 -2.7397039 255 -10.200392 1
36.763412 14.10823 0.041013796 60.262428 -10.122882 1
36.943684 13.629245 0 255 -10.159907 1
36.574253 14.591647 0 255 -10.122882 1
36.760906 14.35024 0.050663769 55.436424 -10.101683 1
36.653233 14.623158 0 255 -10.122882 1
40.414734 -0.48302007 -3.5261815 255 0 1
38.904327 13.12814 -0.036279868 56.334053 -10.200392 1
39.050064 12.688134 0 255 -10.200392 1
38.307434 14.77954 -0.042886734 53.900982 -10.200392 1
38.56432 14.362247 -0.060932048 56.05793 -10.205138 1
38.418674 14.747547 0 255 -10.191652 1
39.75502 12.919714 -1.8052988 58.771053 -10.262834 1
39.760742 13.0273 -0.11269585 57.111855 -10.262834 1
40.280907 14.041666 0.26090601 54.770123 -10.237007 1
40.395069 13.712277 0 255 -10.262834 1
40.385456 13.709015 0.93060058 255 -10.262834 1
40.202549 14.236469 0.93060058 255 -10.262834 1
40.661076 13.199904 0.083369382 53.663231 -10.22372 1
40.090145 14.844059 0.040491585 51.902191 -10.22372 1
43.616268 13.283763 -1.4263397 63.378681 -10.371883 1
43.727661 12.952724 -0.99512029 255 -10.371883 1
43.523273 13.514336 -1.989767 255 -10.371883 1
43.696442 12.943476 -1.989767 255 -10.371883 1
47.676105 12.817944 -2.2032061 62.101501 -10.454798 1
47.801697 12.532108 -0.32979983 60.385895 -10.454798 1
47.632172 12.763002 -3.2321091 255 -10.454798 1
47.897709 12.164468 0 255 -10.454798 1
51.629906 13.178664 -1.6680896 62.459198 -10.540545 1
51.621891 13.11029 -2.3254111 255 -10.540545 1
51.445858 13.784876 -2.3254111 255 -10.540545 1
51.482616 13.794725 -1.1629823 255 -10.540545 1
51.750851 13.188946 -1.2595717 61.519508 -10.517447 1
51.587376 13.822796 -1.1653489 255 -10.540545 1
55.710266 12.843724 -1.2644385 59.603447 -10.575498 1
55.592331 13.346539 -1.2474974 255 -10.575498 1
59.64468 12.750841 -1.3189973 61.374756 -10.609674 1
59.488209 13.460808 -1.3308531 255 -10.609674 1
63.617317 12.841678 -1.4714142 54.962387 -10.624393 1
63.483444 13.493823 -1.4161602 255 -10.624393 1
67.464264 13.643677 -1.4840084 53.022251 -10.642653 1
67.325577 14.310493 -1.5018687 255 -10.642653 1
67.612724 12.971217 -2.888762 49.832096 -10.649845 1
67.51796 13.430157 -3.0056505 255 -10.642653 1
79.631439 12.47673 -3.4894874 51.185268 -10.725393 1
79.76754 11.565742 -3.5191443 255 -10.725393 1
81.630257 12.534513 -1.9973948 45.058418 -10.737934 1
81.736786 11.85127 -1.8021528 255 -10.737934 1
81.764618 11.955335 -3.2258503 44.535301 -10.740719 1
12.652836 13.014168 -0.84352118 255 -7.5437689 1
16.002913 13.288251 -0.67806405 255 -8.2669964 1
16.109768 13.169518 -0.41208807 255 -8.2669964 1
14.556785 14.038302 0.45941654 255 -7.6468515 1
14.448673 14.149549 0.45941654 255 -7.6468515 1
14.500433 14.091695 0.58867776 255 -7.6468515 1
14.504056 14.203785 0.59103209 255 -7.6468515 1
14.560838 14.150396 0.46125391 255 -7.6468515 1
14.612581 14.092112 0.59103209 255 -7.6468515 1
14.615003 14.094446 0.46125391 255 -7.6468515 1
13.066227 13.234714 -0.86428702 255 -7.5437689 1
12.67151 13.6496 -0.93325269 255 -7.2514391 1
13.011239 13.280512 -0.98315167 255 -7.5437689 1
12.964324 13.334551 -0.86428702 255 -7.5437689 1
18.648169 14.286707 0.83519286 255 -8.5980425 1
18.361261 14.066902 0.6743325 255 -8.5980425 1
17.429317 14.299545 0.98549455 255 -8.3576899 1
17.319118 14.43282 0.98549455 255 -8.3576899 1
16.736593 13.947375 0.81285477 255 -8.3576899 1
16.082163 13.596905 -0.20868841 255 -8.1839752 1
20.634331 13.633279 -0.52715886 255 -8.972847 1
20.529148 13.791156 -0.52715886 255 -8.972847 1
24.45842 13.683245 -0.88465363 255 -9.4391155 1
24.518606 13.593712 -0.52629423 255 -9.4391155 1
28.474905 13.571538 -1.0068105 255 -9.7722702 1
28.427862 13.683161 -0.80515534 255 -9.7722702 1
28.531984 13.464699 -0.80515534 255 -9.7722702 1
27.679693 13.783979 -1.3012955 255 -9.6853657 1
27.924053 13.308994 -0.98733354 255 -9.7722702 1
26.073503 14.469366 -0.77701366 255 -9.4443188 1
26.068626 14.46666 -0.96760935 255 -9.4443188 1
26.12392 14.366572 -0.96760935 255 -9.4443188 1
26.159983 14.517358 -0.77959085 255 -9.4443188 1
26.73196 13.440224 -0.68475139 255 -9.6853657 1
33.846302 -0.85064447 -1.6190605 255 -0.21033001 1
30.416496 14.649982 0.42386973 255 -9.7641792 1
31.398657 14.468458 0.078243963 255 -9.7641792 1
31.449499 14.34591 -0.58470714 255 -9.7641792 1
29.11195 14.172981 -0.42983916 255 -9.7875633 1
29.355574 13.663746 -0.34068996 255 -9.7641792 1
29.946003 13.799077 0.074624017 255 -9.7641792 1
29.793943 14.34793 -0.4317295 255 -9.7641792 1
35.556625 -0.66295195 -2.3371634 255 -0.21033001 1
35.594898 -0.66366553 -1.6547945 255 -0.21033001 1
35.569454 -0.79455733 -1.6790417 255 -0.21033001 1
35.629242 -0.60637468 -2.1433551 255 -0.21033001 1
35.653957 -0.52798235 -2.1145844 255 -0.21033001 1
35.612812 -0.82633865 -2.3343565 255 -0.21033001 1
35.03537 14.209909 -0.0079233004 255 -10.039003 1
32.381008 13.605676 -0.40114516 255 -9.8366261 1
32.767632 13.677232 -0.80225891 255 -9.9904728 1
33.287472 13.744541 -1.0440512 255 -9.9904728 1
33.227676 13.869255 -1.2742358 255 -9.9904728 1
33.318821 13.907299 -1.0466998 255 -9.9904728 1
33.365047 13.776573 -1.2774683 255 -9.9904728 1
33.468204 13.969651 -1.7479286 255 -9.9904728 1
33.721111 13.989279 -0.8848123 255 -10.039003 1
33.862709 13.913725 -0.91791201 255 -10.039003 1
36.020115 -0.90046519 -1.1664779 255 -0.19603825 1
36.023304 -0.76230878 -1.1664779 255 -0.19603825 1
36.030025 -0.76245093 -0.93613356 255 -0.19603825 1
36.119011 -0.90293741 -0.93852872 255 -0.19603825 1
36.122208 -0.76440167 -0.93852872 255 -0.19603825 1
36.115471 -0.76425916 -1.1694624 255 -0.19603825 1
36.542934 -0.77330488 -0.71569341 255 -0.19603825 1
37.072983 -1.0690771 -0.72621369 255 -0.19603825 1
37.497696 -1.0813246 -0.73453325 255 -0.19603825 1
38.740196 -0.19578001 -0.71167529 255 0 1
38.743954 -0.19579899 -0.46402156 255 0 1
38.742916 -0.34439418 -0.46402156 255 0 1
38.810238 -0.19613397 -0.71296197 255 0 1
36.445942 13.21631 -0.87253356 255 -10.159907 1
38.441257 13.863621 -0.89142364 255 -10.191652 1
38.223656 14.734186 -0.83356482 255 -10.200392 1
37.643528 13.814177 -0.64605117 255 -10.159907 1
37.385311 14.512807 0.029531261 255 -10.122882 1
37.466614 14.544368 0.029595481 255 -10.122882 1
39.659107 -0.33930266 -1.486925 255 0 1
39.628521 13.226677 -0.026098343 255 -10.200392 1
39.326836 14.353688 -0.6455273 255 -10.191652 1
41.178841 13.556499 -1.3232994 255 -10.262834 1
41.186035 13.558867 -1.0461509 255 -10.262834 1
41.133728 13.716729 -1.0461509 255 -10.262834 1
44.31966 13.38943 -1.3199611 255 -10.371883 1
44.25901 13.556564 -1.6158817 255 -10.371883 1
44.31068 13.386717 -1.6158817 255 -10.371883 1
48.332623 12.981627 -2.5398567 255 -10.454798 1
48.420246 12.806259 -1.5797334 255 -10.454798 1
52.289783 13.32741 -1.8845528 255 -10.540545 1
52.238281 13.527862 -1.8845528 255 -10.540545 1
52.248878 13.530605 -1.5395805 255 -10.540545 1
52.356148 13.558385 -1.5427414 255 -10.540545 1
56.337624 13.145495 -1.2744375 255 -10.575498 1
60.259991 13.102621 -1.3371221 255 -10.609674 1
64.239243 13.168283 -1.4703417 255 -10.624393 1
68.082901 13.974376 -1.5037881 255 -10.642653 1
68.183495 13.722709 -1.9496989 255 -10.642653 1
80.32811 12.310461 -3.5269675 255 -10.725393 1
82.317192 12.433372 -1.955754 255 -10.737934 1
