# .PCD v0.7 - Point Cloud Data file format
VERSION 0.7
FIELDS x y z intensity ring timestamp
SIZE 4 4 4 4 2 8
TYPE F F F F U F
COUNT 1 1 1 1 1 1
WIDTH 940
HEIGHT 1
VIEWPOINT 0 0 0 1 0 0 0
POINTS 940
DATA ascii
3.5597055 3.8119779 -0.3875874 9 0 1.7510044e+09
3.7172263 1.5832314 -0.39900735 10 1 1.7510044e+09
3.7880361 -0.071411259 -0.4022212 10 2 1.7510044e+09
3.8116164 -1.7895494 -0.40248793 10 3 1.7510044e+09
3.1004105 -3.5653572 -0.30968377 18 4 1.7510044e+09
3.5629342 3.84358 -0.38395202 26 0 1.7510044e+09
3.7253025 1.6028273 -0.39835814 10 1 1.7510044e+09
3.8181014 -0.0579799 -0.4053883 10 2 1.7510044e+09
3.8043549 -1.769152 -0.40398982 10 3 1.7510044e+09
3.1257691 -3.5692801 -0.31596047 15 4 1.7510044e+09
3.5882332 3.8953464 -0.38334891 28 0 1.7510044e+09
3.7332854 1.6225041 -0.39769313 9 1 1.7510044e+09
3.7984014 -0.043756377 -0.40327689 10 2 1.7510044e+09
3.7880197 -1.7446979 -0.40377742 9 3 1.7510044e+09
3.1386099 -3.55755 -0.32092872 21 4 1.7510044e+09
3.6266646 3.9689212 -0.38349453 20 0 1.7510044e+09
3.7502878 1.6462612 -0.39797959 10 1 1.7510044e+09
3.7836204 -0.029717095 -0.40169334 10 2 1.7510044e+09
3.762502 -1.7162573 -0.40256992 10 3 1.7510044e+09
3.1646955 -3.5607255 -0.32643595 20 4 1.7510044e+09
3.6457813 4.0193267 -0.38326374 27 0 1.7510044e+09
3.739743 1.6580069 -0.39678207 10 1 1.7510044e+09
3.7984819 -0.015248165 -0.40460286 10 2 1.7510044e+09
3.763911 -1.700262 -0.4056899 10 3 1.7510044e+09
3.1901433 -3.5642238 -0.33364746 22 4 1.7510044e+09
3.6601191 4.0606966 -0.38035724 39 0 1.7510044e+09
3.7527118 1.6786692 -0.39512545 10 1 1.7510044e+09
3.773792 -0.0026346042 -0.40063763 10 2 1.7510044e+09
3.7558393 -1.6816418 -0.40494177 10 3 1.7510044e+09
3.2017887 -3.5534513 -0.33698678 18 4 1.7510044e+09
3.6853447 4.1189394 -0.37969866 106 0 1.7510044e+09
3.7508368 1.6951442 -0.39488539 9 1 1.7510044e+09
3.7685943 0.011181678 -0.40208307 10 2 1.7510044e+09
3.6934245 -1.6374717 -0.40112284 35 3 1.7510044e+09
3.2272987 -3.5567191 -0.34426022 16 4 1.7510044e+09
3.7035685 4.1699634 -0.37825868 92 0 1.7510044e+09
3.7900677 1.7296305 -0.39747903 10 1 1.7510044e+09
3.7734997 0.025027163 -0.40261352 10 2 1.7510044e+09
3.6490963 -1.6018412 -0.39777559 45 3 1.7510044e+09
3.2434325 -3.548279 -0.34965205 20 4 1.7510044e+09
3.7203772 4.215488 -0.37639737 96 0 1.7510044e+09
3.7704539 1.7374052 -0.39243168 10 1 1.7510044e+09
3.7783473 0.039568208 -0.40314397 9 2 1.7510044e+09
3.6547513 -1.5883727 -0.3998622 107 3 1.7510044e+09
3.2629638 -3.5434783 -0.35458121 22 4 1.7510044e+09
3.7464051 4.2794843 -0.37478319 71 0 1.7510044e+09
3.8092554 1.7722396 -0.39640379 10 1 1.7510044e+09
3.7881193 0.053556845 -0.40420488 9 2 1.7510044e+09
3.6423502 -1.5663835 -0.39994141 122 3 1.7510044e+09
3.2886202 -3.5464172 -0.36111447 20 4 1.7510044e+09
3.7734964 4.3424416 -0.37303281 103 0 1.7510044e+09
3.7848983 1.7778116 -0.39233565 10 1 1.7510044e+09
3.7730551 0.067176379 -0.40195492 10 2 1.7510044e+09
3.6295655 -1.5451468 -0.39999974 119 3 1.7510044e+09
3.3115466 -3.5449915 -0.36731157 17 4 1.7510044e+09
3.8172452 4.423882 -0.37273774 88 0 1.7510044e+09
3.8505147 1.8258886 -0.39757743 14 1 1.7510044e+09
3.7827249 0.081218317 -0.40301409 10 2 1.7510044e+09
3.6258433 -1.5278888 -0.4010511 116 3 1.7510044e+09
3.3345463 -3.5434878 -0.37269041 21 4 1.7510044e+09
3.8677135 4.5125389 -0.37391755 80 0 1.7510044e+09
3.8171017 1.8272107 -0.3918364 19 1 1.7510044e+09
3.7675076 0.094049767 -0.40142533 10 2 1.7510044e+09
3.6220431 -1.5106788 -0.40209198 116 3 1.7510044e+09
3.3569114 -3.5423963 -0.37894684 13 4 1.7510044e+09
3.9314368 4.6226912 -0.37541175 128 0 1.7510044e+09
3.8688424 1.8694385 -0.39557943 95 1 1.7510044e+09
3.801888 0.1101809 -0.40513241 10 2 1.7510044e+09
3.6181657 -1.4935172 -0.40312231 112 3 1.7510044e+09
3.3868523 -3.5478556 -0.38516268 19 4 1.7510044e+09
4.0145183 4.755589 -0.37846524 145 0 1.7510044e+09
3.8800514 1.8924276 -0.39515263 92 1 1.7510044e+09
3.7766125 0.12330357 -0.40248451 10 2 1.7510044e+09
3.6234195 -1.4801658 -0.40517178 110 3 1.7510044e+09
3.4030061 -3.5387182 -0.39069551 16 4 1.7510044e+09
4.0013108 4.7736502 -0.37333322 125 0 1.7510044e+09
3.8643391 1.9023285 -0.39198589 108 1 1.7510044e+09
3.7959855 0.13852906 -0.40460286 9 2 1.7510044e+09
3.6424553 -1.472387 -0.40877342 107 3 1.7510044e+09
3.4324353 -3.5444734 -0.39698464 18 4 1.7510044e+09
3.9968042 4.8039293 -0.36798587 96 0 1.7510044e+09
3.8575242 1.9165702 -0.38973057 102 1 1.7510044e+09
3.7805486 0.15184252 -0.40301409 10 2 1.7510044e+09
3.6478825 -1.4583105 -0.41083047 18 3 1.7510044e+09
3.4625106 -3.5494056 -0.40418243 17 4 1.7510044e+09
4.023912 4.8727255 -0.36548325 49 0 1.7510044e+09
3.8329089 1.9218886 -0.38493505 92 1 1.7510044e+09
3.7751272 0.16416548 -0.40182501 10 2 1.7510044e+09
3.6530027 -1.4448512 -0.41288742 10 3 1.7510044e+09
3.4752483 -3.5364385 -0.40850946 19 4 1.7510044e+09
4.1273956 5.0337238 -0.36963695 15 0 1.7510044e+09
3.8304622 1.9382634 -0.38313442 118 1 1.7510044e+09
3.7943034 0.18026224 -0.40393987 10 2 1.7510044e+09
3.6210282 -1.4168787 -0.41074228 10 3 1.7510044e+09
3.5158756 -3.5516477 -0.41789994 21 4 1.7510044e+09
4.1770854 5.1289196 -0.36981747 8 0 1.7510044e+09
3.8279464 1.9546459 -0.38132846 120 1 1.7510044e+09
3.7787545 0.19274589 -0.4023537 10 2 1.7510044e+09
3.6121526 -1.3981612 -0.41051862 10 3 1.7510044e+09
3.5315104 -3.5426223 -0.42268196 14 4 1.7510044e+09
4.2315989 5.2330556 -0.36918962 8 0 1.7510044e+09
3.8526187 1.9833784 -0.38215271 115 1 1.7510044e+09
3.7830572 0.20686974 -0.4022212 9 2 1.7510044e+09
3.6258528 -1.3896567 -0.41360578 9 3 1.7510044e+09
3.5441556 -3.5293407 -0.42791998 16 4 1.7510044e+09
4.2857671 5.3437753 -0.36858952 9 0 1.7510044e+09
3.8537006 2.0035455 -0.37999907 108 1 1.7510044e+09
3.7770927 0.22175455 -0.40301409 10 2 1.7510044e+09
3.58922 -1.3591175 -0.41218892 10 3 1.7510044e+09
3.581599 -3.5405777 -0.43529859 14 4 1.7510044e+09
4.3531713 5.462894 -0.36974752 9 0 1.7510044e+09
3.8642099 2.0270352 -0.37869591 95 1 1.7510044e+09
3.7911825 0.23586388 -0.40460286 10 2 1.7510044e+09
3.5893192 -1.3441341 -0.41366187 10 3 1.7510044e+09
3.6013894 -3.5341368 -0.44056317 13 4 1.7510044e+09
4.4181747 5.5903664 -0.3684426 7 0 1.7510044e+09
3.8789437 2.0529282 -0.3785595 97 1 1.7510044e+09
3.8003385 0.25175199 -0.40366784 10 2 1.7510044e+09
3.5851297 -1.3268912 -0.4125888 10 3 1.7510044e+09
3.6313183 -3.5387092 -0.44627762 17 4 1.7510044e+09
4.4500909 5.6672583 -0.36754331 8 0 1.7510044e+09
3.933032 2.1000435 -0.38301891 94 1 1.7510044e+09
3.789422 0.26365301 -0.40393987 9 2 1.7510044e+09
3.5849614 -1.3119097 -0.41538379 10 3 1.7510044e+09
3.6546078 -3.5353825 -0.45380542 19 4 1.7510044e+09
4.4847779 5.7547317 -0.36448801 8 0 1.7510044e+09
3.9657035 2.1344187 -0.38451245 98 1 1.7510044e+09
3.7885005 0.2775453 -0.40327689 10 2 1.7510044e+09
3.5891554 -1.2999647 -0.41671631 10 3 1.7510044e+09
3.6672537 -3.521688 -0.45824251 13 4 1.7510044e+09
4.5118308 5.8355212 -0.35818076 9 0 1.7510044e+09
3.9661524 2.1552382 -0.38142413 95 1 1.7510044e+09
3.8123345 0.29401249 -0.40458146 9 2 1.7510044e+09
3.5661964 -1.2754788 -0.41412175 10 3 1.7510044e+09
3.6942041 -3.5216334 -0.46538278 16 4 1.7510044e+09
4.6030936 5.998868 -0.36055499 8 0 1.7510044e+09
3.9759355 2.1794677 -0.37994283 97 1 1.7510044e+09
3.821106 0.31012395 -0.4049646 10 2 1.7510044e+09
3.5849211 -1.2666712 -0.417743 10 3 1.7510044e+09
3.7206411 -3.5221274 -0.47167 12 4 1.7510044e+09
4.600512 6.0390353 -0.35403404 9 0 1.7510044e+09
3.9899547 2.2062092 -0.37884751 99 1 1.7510044e+09
3.8100069 0.32194427 -0.40524882 10 2 1.7510044e+09
3.5518656 -1.2403669 -0.41468772 10 3 1.7510044e+09
3.7332239 -3.5081837 -0.47614077 11 4 1.7510044e+09
4.6680765 6.1700644 -0.3526867 12 0 1.7510044e+09
3.9914951 2.224376 -0.37728313 98 1 1.7510044e+09
3.8137655 0.33701512 -0.40510756 10 2 1.7510044e+09
3.5509188 -1.2268403 -0.4174186 10 3 1.7510044e+09
3.727551 -3.4772139 -0.47827587 21 4 1.7510044e+09
4.7241325 6.2782497 -0.35266599 6 0 1.7510044e+09
4.0175085 2.260056 -0.37735659 95 1 1.7510044e+09
3.8224249 0.35324994 -0.40481985 9 2 1.7510044e+09
3.5463395 -1.2093449 -0.41696826 10 3 1.7510044e+09
3.593811 -3.3279057 -0.46472266 20 4 1.7510044e+09
4.7519417 6.3451228 -0.35027057 3 0 1.7510044e+09
4.03971 2.2920778 -0.37778035 92 1 1.7510044e+09
3.8162253 0.36678848 -0.40362638 10 2 1.7510044e+09
3.5317736 -1.1899458 -0.4160572 10 3 1.7510044e+09
3.5360625 -3.2504373 -0.45994094 25 4 1.7510044e+09
4.7943988 6.4321795 -0.34886351 7 0 1.7510044e+09
4.0617895 2.3243263 -0.37735072 29 1 1.7510044e+09
3.8198736 0.38127407 -0.40347987 10 2 1.7510044e+09
3.5220339 -1.1716247 -0.41568863 10 3 1.7510044e+09
3.4557462 -3.1533182 -0.45210803 24 4 1.7510044e+09
4.8575864 6.5598612 -0.34782273 7 0 1.7510044e+09
4.0974069 2.3627791 -0.3788929 14 1 1.7510044e+09
3.8185194 0.39460561 -0.40347987 9 2 1.7510044e+09
3.5256922 -1.1598706 -0.41763207 10 3 1.7510044e+09
3.4037473 -3.0841651 -0.44794011 11 4 1.7510044e+09
4.9284225 6.7067804 -0.34446639 4 0 1.7510044e+09
4.1268868 2.4019053 -0.37915272 14 1 1.7510044e+09
3.8121729 0.40807673 -0.40228811 10 2 1.7510044e+09
3.5203304 -1.1438247 -0.417806 10 3 1.7510044e+09
3.3371024 -3.0015779 -0.44088224 10 4 1.7510044e+09
5.0111504 6.8694835 -0.34448972 7 0 1.7510044e+09
4.1535239 2.4358838 -0.37895745 17 1 1.7510044e+09
3.8204668 0.42313334 -0.40400252 9 2 1.7510044e+09
3.5006373 -1.1232578 -0.41692695 10 3 1.7510044e+09
3.2994859 -2.9459383 -0.43916032 10 4 1.7510044e+09
5.0916119 7.0337863 -0.34268329 1 0 1.7510044e+09
4.1790628 2.4714911 -0.37955368 19 1 1.7510044e+09
3.8339217 0.43885383 -0.40354994 9 2 1.7510044e+09
3.5000496 -1.1082644 -0.4176451 10 3 1.7510044e+09
3.2764642 -2.9038718 -0.43853518 10 4 1.7510044e+09
5.2013512 7.2384462 -0.34241927 3 0 1.7510044e+09
4.2130184 2.5124598 -0.38002607 9 1 1.7510044e+09
3.8124547 0.45123374 -0.4014698 10 2 1.7510044e+09
3.4944658 -1.0924206 -0.41779286 10 3 1.7510044e+09
3.2157748 -2.8291073 -0.43355229 11 4 1.7510044e+09
5.2981896 7.4277878 -0.33774188 8 0 1.7510044e+09
4.2335835 2.5468116 -0.37755594 9 1 1.7510044e+09
3.8207173 0.46641773 -0.40183806 10 2 1.7510044e+09
3.4745038 -1.0722169 -0.4168624 12 3 1.7510044e+09
3.1547627 -2.7549853 -0.42617804 10 4 1.7510044e+09
5.4096923 7.6432109 -0.33681437 4 0 1.7510044e+09
4.2509203 2.5764775 -0.37637165 10 1 1.7510044e+09
3.8387883 0.4829098 -0.40323949 9 2 1.7510044e+09
3.4830225 -1.0608798 -0.41870287 10 3 1.7510044e+09
3.1372983 -2.7214489 -0.42625946 10 4 1.7510044e+09
5.5210629 7.858593 -0.33538413 1 0 1.7510044e+09
4.2968669 2.6259079 -0.37952146 10 1 1.7510044e+09
3.8469262 0.49826303 -0.40359908 10 2 1.7510044e+09
3.4631448 -1.0403111 -0.41710901 10 3 1.7510044e+09
3.1130495 -2.6804821 -0.4252502 22 4 1.7510044e+09
5.5667191 7.9856439 -0.32972744 4 0 1.7510044e+09
4.3172097 2.6601219 -0.37772673 10 1 1.7510044e+09
3.8353341 0.51174283 -0.4005383 9 2 1.7510044e+09
3.4716969 -1.0290227 -0.41768196 23 3 1.7510044e+09
3.0819046 -2.6321952 -0.42312405 17 4 1.7510044e+09
5.6698155 8.2004795 -0.32550281 1 0 1.7510044e+09
4.3405418 2.698597 -0.37802196 10 1 1.7510044e+09
nan nan nan 0 2 1.7510044e+09
3.4516113 -1.0080141 -0.41795528 10 3 1.7510044e+09
3.0793009 -2.6114371 -0.42649966 13 4 1.7510044e+09
5.7941289 8.4368172 -0.3252188 1 0 1.7510044e+09
4.3867869 2.7475605 -0.37829944 9 1 1.7510044e+09
nan nan nan 0 2 1.7510044e+09
3.4503367 -0.99458396 -0.41737801 13 3 1.7510044e+09
3.0387845 -2.5588939 -0.42175162 13 4 1.7510044e+09
5.9293904 8.7019453 -0.32356107 1 0 1.7510044e+09
4.4022093 2.779736 -0.37685147 9 1 1.7510044e+09
3.8836896 0.56172413 -0.40551656 10 2 1.7510044e+09
3.4442644 -0.97917509 -0.41747338 10 3 1.7510044e+09
2.9868259 -2.4964883 -0.41670325 10 4 1.7510044e+09
6.0416656 8.940299 -0.31836385 1 0 1.7510044e+09
4.4035029 2.7967045 -0.37484211 19 1 1.7510044e+09
3.8722653 0.57111585 -0.40448862 9 2 1.7510044e+09
3.4274843 -0.96471334 -0.41702169 10 3 1.7510044e+09
2.9626017 -2.4630952 -0.41446313 10 4 1.7510044e+09
6.1359124 9.1484365 -0.31154165 1 0 1.7510044e+09
4.4312444 2.8371692 -0.37439406 10 1 1.7510044e+09
3.8851087 0.58756745 -0.40397319 10 2 1.7510044e+09
3.4406633 -0.95418042 -0.41880813 10 3 1.7510044e+09
2.9444914 -2.429842 -0.41405123 9 4 1.7510044e+09
6.305151 9.4684877 -0.31179199 1 0 1.7510044e+09
4.4424872 2.8662806 -0.37247756 9 1 1.7510044e+09
3.8780835 0.60105211 -0.4027769 10 2 1.7510044e+09
3.4200466 -0.93497723 -0.41713333 10 3 1.7510044e+09
2.937716 -2.4062057 -0.4152087 10 4 1.7510044e+09
6.3956828 9.684844 -0.3018887 1 0 1.7510044e+09
4.5200858 2.9398665 -0.37421051 9 1 1.7510044e+09
3.915185 0.62220597 -0.40547705 10 2 1.7510044e+09
3.4281037 -0.92368978 -0.41895688 13 3 1.7510044e+09
2.919239 -2.3732471 -0.41468772 9 4 1.7510044e+09
6.5298767 9.9559269 -0.29722139 1 0 1.7510044e+09
4.5260749 2.9674249 -0.37370604 16 1 1.7510044e+09
3.9080386 0.6357643 -0.40427727 10 2 1.7510044e+09
3.4170859 -0.90666229 -0.41843313 13 3 1.7510044e+09
2.9160326 -2.3529418 -0.4163143 9 4 1.7510044e+09
6.6925116 10.285902 -0.29347968 1 0 1.7510044e+09
4.5528398 3.0088902 -0.37299612 12 1 1.7510044e+09
3.9204717 0.65254539 -0.40510726 10 2 1.7510044e+09
3.4250484 -0.89535069 -0.42025658 10 3 1.7510044e+09
2.8933814 -2.3172069 -0.41448519 9 4 1.7510044e+09
6.8058624 10.540419 -0.28691587 1 0 1.7510044e+09
4.5753183 3.0478983 -0.36996683 98 1 1.7510044e+09
3.9329736 0.66944987 -0.40453944 10 2 1.7510044e+09
3.4186902 -0.88031501 -0.41907775 10 3 1.7510044e+09
2.8782899 -2.2878554 -0.41371849 10 4 1.7510044e+09
7.0011182 10.926324 -0.2831572 8 0 1.7510044e+09
4.6228576 3.1029193 -0.37078011 39 1 1.7510044e+09
3.9303048 0.68453431 -0.40523574 10 2 1.7510044e+09
3.4122775 -0.86470646 -0.41912767 10 3 1.7510044e+09
2.8590682 -2.2555263 -0.41298309 9 4 1.7510044e+09
nan nan nan 0 0 1.7510044e+09
4.6653876 3.1563303 -0.37116688 39 1 1.7510044e+09
3.9278388 0.69894737 -0.40453944 10 2 1.7510044e+09
3.4152818 -0.85215855 -0.42035642 10 3 1.7510044e+09
2.8631766 -2.241791 -0.41495842 9 4 1.7510044e+09
nan nan nan 0 0 1.7510044e+09
4.6746116 3.1876085 -0.36886075 48 1 1.7510044e+09
3.9547567 0.71870112 -0.40616286 10 2 1.7510044e+09
3.4180965 -0.83956504 -0.42281374 9 3 1.7510044e+09
2.8395951 -2.2065873 -0.41481721 10 4 1.7510044e+09
nan nan nan 0 0 1.7510044e+09
4.6918931 3.2246487 -0.36716318 86 1 1.7510044e+09
3.9718704 0.73685974 -0.40605846 10 2 1.7510044e+09
3.4020641 -0.82178903 -0.41981748 10 3 1.7510044e+09
2.8199604 -2.1747997 -0.41267124 9 4 1.7510044e+09
nan nan nan 0 0 1.7510044e+09
4.7008657 3.2562478 -0.36278391 144 1 1.7510044e+09
3.9792511 0.75188732 -0.4063518 10 2 1.7510044e+09
3.4000809 -0.80813241 -0.42044196 10 3 1.7510044e+09
2.8316262 -2.1672921 -0.41573629 10 4 1.7510044e+09
nan nan nan 0 0 1.7510044e+09
4.7264557 3.2984474 -0.36261526 130 1 1.7510044e+09
3.9910598 0.77000189 -0.40714005 10 2 1.7510044e+09
3.3835423 -0.79111099 -0.41926602 10 3 1.7510044e+09
2.8194888 -2.1416602 -0.41593114 10 4 1.7510044e+09
nan nan nan 0 0 1.7510044e+09
4.7391334 3.3331909 -0.35843176 153 1 1.7510044e+09
3.9833331 0.78510946 -0.4038074 10 2 1.7510044e+09
3.3913929 -0.77922487 -0.41986495 10 3 1.7510044e+09
2.8231802 -2.1281915 -0.41719905 10 4 1.7510044e+09
7.9293375 13.077434 -0.20821309 8 0 1.7510044e+09
4.78409 3.3910866 -0.35866019 118 1 1.7510044e+09
3.9853759 0.80069774 -0.40359282 10 2 1.7510044e+09
3.3892412 -0.76566344 -0.42047894 10 3 1.7510044e+09
2.8107903 -2.1027398 -0.41733271 11 4 1.7510044e+09
7.8737135 13.093705 -0.19467574 8 0 1.7510044e+09
4.8246264 3.4464571 -0.35848907 149 1 1.7510044e+09
4.0312982 0.82530719 -0.40709636 10 2 1.7510044e+09
3.3773446 -0.74997622 -0.41988453 10 3 1.7510044e+09
2.814199 -2.0892467 -0.41980124 10 4 1.7510044e+09
7.822969 13.112742 -0.17322893 6 0 1.7510044e+09
4.8897405 3.5188136 -0.36001682 119 1 1.7510044e+09
4.0334802 0.83969957 -0.40686956 10 2 1.7510044e+09
3.3849776 -0.73804444 -0.42109165 10 3 1.7510044e+09
2.8016179 -2.0640216 -0.41925761 16 4 1.7510044e+09
18.33024 30.970066 -0.37059838 24 0 1.7510044e+09
4.9336824 3.5779564 -0.35781074 114 1 1.7510044e+09
4.0349336 0.85765159 -0.40592107 10 2 1.7510044e+09
3.3633928 -0.72043496 -0.41807523 20 3 1.7510044e+09
2.784826 -2.0359461 -0.41867968 10 4 1.7510044e+09
18.191889 30.982542 -0.31981513 32 0 1.7510044e+09
4.9892983 3.6462681 -0.35739991 126 1 1.7510044e+09
4.0416975 0.87458432 -0.40473518 10 2 1.7510044e+09
3.3804386 -0.71113783 -0.4210909 10 3 1.7510044e+09
2.7840567 -2.0197675 -0.41927585 10 4 1.7510044e+09
18.103527 31.092489 -0.28258336 31 0 1.7510044e+09
nan nan nan 0 1 1.7510044e+09
4.0388436 0.88799739 -0.40401345 10 2 1.7510044e+09
3.3733509 -0.69613171 -0.42048207 10 3 1.7510044e+09
2.771064 -1.9948807 -0.41863459 10 4 1.7510044e+09
18.002523 31.168718 -0.2450083 35 0 1.7510044e+09
nan nan nan 0 1 1.7510044e+09
4.0519319 0.89829171 -0.40474764 10 2 1.7510044e+09
3.3695288 -0.69043928 -0.41927585 14 3 1.7510044e+09
2.7576015 -1.9793491 -0.41738558 10 4 1.7510044e+09
17.970819 31.366123 -0.19558935 31 0 1.7510044e+09
nan nan nan 0 1 1.7510044e+09
4.0537415 0.91429353 -0.40233189 10 2 1.7510044e+09
3.3621619 -0.67609894 -0.41926298 11 3 1.7510044e+09
2.7444499 -1.9547076 -0.4160988 11 4 1.7510044e+09
17.965086 31.611423 -0.15230396 25 0 1.7510044e+09
5.2295504 3.9193261 -0.35736772 118 1 1.7510044e+09
4.0698347 0.93361187 -0.40353045 10 2 1.7510044e+09
3.3646894 -0.6637857 -0.4186644 26 3 1.7510044e+09
2.7432537 -1.9387401 -0.41721845 10 4 1.7510044e+09
17.805605 31.586966 -0.10758542 32 0 1.7510044e+09
5.2791948 3.9868329 -0.35480833 132 1 1.7510044e+09
4.115129 0.95989215 -0.4053902 15 2 1.7510044e+09
3.3672132 -0.65086132 -0.4186644 14 3 1.7510044e+09
2.7423728 -1.9223708 -0.41773951 11 4 1.7510044e+09
17.758734 31.762493 -0.057161253 36 0 1.7510044e+09
5.3363128 4.0607672 -0.35377669 119 1 1.7510044e+09
4.1069465 0.97386891 -0.40270275 12 2 1.7510044e+09
3.3646276 -0.63757777 -0.4186562 15 3 1.7510044e+09
2.732929 -1.9008502 -0.41700712 10 4 1.7510044e+09
17.66646 31.871138 -0.012719959 30 0 1.7510044e+09
5.4175105 4.1524968 -0.35295096 108 1 1.7510044e+09
4.1568527 1.0018095 -0.4049415 19 2 1.7510044e+09
3.3913403 -0.62977231 -0.42168996 14 3 1.7510044e+09
2.7356141 -1.8878784 -0.41812602 10 4 1.7510044e+09
17.70112 31.920527 0.012740904 29 0 1.7510044e+09
5.5122509 4.2098627 -0.35378909 102 1 1.7510044e+09
4.2073526 1.0062135 -0.40588057 10 2 1.7510044e+09
3.4151733 -0.63974923 -0.42108536 10 3 1.7510044e+09
2.7533994 -1.9065442 -0.41773951 12 4 1.7510044e+09
17.783154 31.806168 -0.025439916 38 0 1.7510044e+09
5.4519348 4.1322474 -0.35133764 115 1 1.7510044e+09
4.2159271 0.99194252 -0.40559176 13 2 1.7510044e+09
3.4326262 -0.6566714 -0.41983199 10 3 1.7510044e+09
2.7752352 -1.936751 -0.41852787 10 4 1.7510044e+09
17.83758 31.64369 -0.057059154 32 0 1.7510044e+09
5.414309 4.0740514 -0.35155168 145 1 1.7510044e+09
4.2098346 0.97423893 -0.40465933 10 2 1.7510044e+09
3.4546309 -0.67401552 -0.4221994 10 3 1.7510044e+09
2.7806528 -1.955726 -0.41680917 10 4 1.7510044e+09
17.99542 31.651939 -0.088966317 25 0 1.7510044e+09
nan nan nan 0 1 1.7510044e+09
4.2183986 0.95917094 -0.40512556 20 2 1.7510044e+09
3.4621644 -0.68866736 -0.42092609 18 3 1.7510044e+09
2.7981172 -1.9833776 -0.41686866 10 4 1.7510044e+09
18.04854 31.489035 -0.13302782 46 0 1.7510044e+09
nan nan nan 0 1 1.7510044e+09
4.192667 0.93717217 -0.4030782 11 2 1.7510044e+09
3.4595666 -0.70197052 -0.42030999 10 3 1.7510044e+09
2.8112607 -2.0082154 -0.41747323 11 4 1.7510044e+09
18.230825 31.551275 -0.1653589 30 0 1.7510044e+09
nan nan nan 0 1 1.7510044e+09
4.2155228 0.92607152 -0.40494648 10 2 1.7510044e+09
3.4669821 -0.71671546 -0.4190208 19 3 1.7510044e+09
2.828409 -2.0361631 -0.41742277 12 4 1.7510044e+09
18.295452 31.409512 -0.20301564 36 0 1.7510044e+09
nan nan nan 0 1 1.7510044e+09
4.1966205 0.89508182 -0.404109 10 2 1.7510044e+09
3.482367 -0.74083525 -0.42012882 10 3 1.7510044e+09
2.8371093 -2.0673389 -0.41610736 11 4 1.7510044e+09
18.329277 31.204052 -0.24633561 52 0 1.7510044e+09
nan nan nan 0 1 1.7510044e+09
4.1948624 0.87864488 -0.40513629 9 2 1.7510044e+09
3.4746552 -0.75378656 -0.41830176 11 3 1.7510044e+09
2.8538196 -2.0955722 -0.41654909 10 4 1.7510044e+09
18.387026 31.05364 -0.27714857 20 0 1.7510044e+09
nan nan nan 0 1 1.7510044e+09
4.1929464 0.86373931 -0.40391853 9 2 1.7510044e+09
3.4819152 -0.7680974 -0.41760331 10 3 1.7510044e+09
2.8544533 -2.1121843 -0.41399923 10 4 1.7510044e+09
7.8049641 13.077376 -0.13290513 8 0 1.7510044e+09
nan nan nan 0 1 1.7510044e+09
4.2206383 0.85179663 -0.40776992 10 2 1.7510044e+09
3.5033152 -0.78757894 -0.41800472 11 3 1.7510044e+09
2.8669484 -2.1377358 -0.41314957 10 4 1.7510044e+09
7.8633628 13.071325 -0.15175998 8 0 1.7510044e+09
nan nan nan 0 1 1.7510044e+09
4.1943588 0.83126622 -0.40419522 13 2 1.7510044e+09
3.5153522 -0.80254066 -0.41848055 16 3 1.7510044e+09
2.891094 -2.1722732 -0.41521561 10 4 1.7510044e+09
18.804173 31.000513 -0.39869148 14 0 1.7510044e+09
nan nan nan 0 1 1.7510044e+09
4.207366 0.81630504 -0.4058843 9 2 1.7510044e+09
3.5123162 -0.81604922 -0.41785118 10 3 1.7510044e+09
2.9032042 -2.1980667 -0.41488978 22 4 1.7510044e+09
18.919901 30.94717 -0.43051022 18 0 1.7510044e+09
5.0561852 3.508908 -0.36025316 135 1 1.7510044e+09
4.2004104 0.79899204 -0.40643406 10 2 1.7510044e+09
3.5336132 -0.83465958 -0.41946158 10 3 1.7510044e+09
2.9112155 -2.2209656 -0.41395858 13 4 1.7510044e+09
19.082645 30.969929 -0.46985054 21 0 1.7510044e+09
5.0270371 3.4627438 -0.36265844 119 1 1.7510044e+09
4.1787753 0.77901739 -0.40481019 10 2 1.7510044e+09
3.5352054 -0.85003299 -0.41876623 18 3 1.7510044e+09
2.9072232 -2.2348244 -0.41196033 10 4 1.7510044e+09
19.216862 30.933317 -0.5085026 22 0 1.7510044e+09
4.9653149 3.393461 -0.36151966 96 1 1.7510044e+09
4.1960931 0.76785636 -0.40548772 10 2 1.7510044e+09
3.5519545 -0.86652994 -0.41850221 10 3 1.7510044e+09
2.9425676 -2.279201 -0.41420323 10 4 1.7510044e+09
19.44116 31.052027 -0.54993957 10 0 1.7510044e+09
4.936202 3.3470881 -0.36268324 90 1 1.7510044e+09
4.1842427 0.74909502 -0.40481019 9 2 1.7510044e+09
3.5535645 -0.88139313 -0.41779286 10 3 1.7510044e+09
2.9540675 -2.3054805 -0.41369835 9 4 1.7510044e+09
nan nan nan 0 0 1.7510044e+09
4.9109583 3.3037605 -0.36408389 148 1 1.7510044e+09
4.1919794 0.73312545 -0.40676972 10 2 1.7510044e+09
3.5649035 -0.89808816 -0.41821024 20 3 1.7510044e+09
2.961508 -2.3288035 -0.41260546 10 4 1.7510044e+09
7.7489681 12.182203 -0.24697298 59 0 1.7510044e+09
4.8772683 3.2551937 -0.36275396 56 1 1.7510044e+09
4.1648836 0.71416122 -0.40465271 10 2 1.7510044e+09
3.5616586 -0.91116625 -0.41756862 10 3 1.7510044e+09
2.9726577 -2.3552549 -0.41267946 9 4 1.7510044e+09
7.7481117 12.087478 -0.26314601 72 0 1.7510044e+09
4.8551064 3.2159626 -0.36434987 86 1 1.7510044e+09
4.1823735 0.69988924 -0.40682268 10 2 1.7510044e+09
3.5916789 -0.93489289 -0.41957536 10 3 1.7510044e+09
2.983711 -2.3818653 -0.41205227 9 4 1.7510044e+09
7.7195807 11.95094 -0.27566275 33 0 1.7510044e+09
4.8332858 3.1760831 -0.36588991 101 1 1.7510044e+09
4.1701055 0.68213362 -0.40612772 10 2 1.7510044e+09
3.5982375 -0.94935185 -0.42004925 21 3 1.7510044e+09
3.0101621 -2.4210975 -0.4128359 10 4 1.7510044e+09
7.5476766 11.591375 -0.28249595 24 0 1.7510044e+09
4.8321381 3.1500313 -0.36896983 90 1 1.7510044e+09
4.1773057 0.66834819 -0.40734443 12 2 1.7510044e+09
3.5996749 -0.96385664 -0.41930932 25 3 1.7510044e+09
3.0324509 -2.4573836 -0.41368049 10 4 1.7510044e+09
7.365828 11.226207 -0.2859436 7 0 1.7510044e+09
4.8350544 3.12674 -0.37235144 131 1 1.7510044e+09
4.1748796 0.65227574 -0.40612772 9 2 1.7510044e+09
3.634589 -0.98817712 -0.4211525 10 3 1.7510044e+09
3.0699246 -2.5064471 -0.41654593 10 4 1.7510044e+09
7.2247577 10.923701 -0.29263246 7 0 1.7510044e+09
4.8169746 3.0900688 -0.37209046 74 1 1.7510044e+09
4.1625519 0.63472956 -0.40395775 9 2 1.7510044e+09
3.621644 -0.99892712 -0.4174186 10 3 1.7510044e+09
3.1229522 -2.5679617 -0.42067444 23 4 1.7510044e+09
7.0519977 10.582025 -0.29746076 1 0 1.7510044e+09
4.806891 3.0587904 -0.37643516 66 1 1.7510044e+09
4.1695633 0.62016982 -0.40664253 10 2 1.7510044e+09
3.6275299 -1.0148722 -0.41852286 10 3 1.7510044e+09
3.1482143 -2.6081336 -0.42247733 19 4 1.7510044e+09
6.8435082 10.191897 -0.30002713 1 0 1.7510044e+09
4.762588 3.0072939 -0.37411615 36 1 1.7510044e+09
4.1573467 0.60056418 -0.40520221 10 2 1.7510044e+09
3.6479714 -1.0350231 -0.41863638 10 3 1.7510044e+09
3.1771586 -2.6518095 -0.42328343 16 4 1.7510044e+09
6.7069111 9.909791 -0.3070727 1 0 1.7510044e+09
4.7733555 2.9896784 -0.37804836 34 1 1.7510044e+09
4.1642437 0.58746994 -0.40568233 10 2 1.7510044e+09
3.6585088 -1.053208 -0.41828907 10 3 1.7510044e+09
3.1867363 -2.6796808 -0.42219391 22 4 1.7510044e+09
6.606113 9.6878309 -0.31319526 1 0 1.7510044e+09
4.7404675 2.9380689 -0.37923205 34 1 1.7510044e+09
4.1472979 0.56368524 -0.40522292 10 2 1.7510044e+09
3.653271 -1.0717528 -0.41696012 10 3 1.7510044e+09
3.2199194 -2.7335901 -0.42382395 15 4 1.7510044e+09
6.4529052 9.3925467 -0.31631777 1 0 1.7510044e+09
4.6999831 2.8891876 -0.37901327 36 1 1.7510044e+09
4.1491246 0.54845291 -0.40741435 9 2 1.7510044e+09
3.6781135 -1.0936978 -0.41821697 10 3 1.7510044e+09
3.2593133 -2.7876542 -0.42657104 13 4 1.7510044e+09
6.3590932 9.1836958 -0.31982282 1 0 1.7510044e+09
4.6890197 2.8588209 -0.38113394 24 1 1.7510044e+09
4.1659856 0.53515321 -0.40813458 9 2 1.7510044e+09
3.6837382 -1.1100818 -0.41795748 10 3 1.7510044e+09
3.3172066 -2.858288 -0.43165755 11 4 1.7510044e+09
6.2593803 8.9726114 -0.32469705 1 0 1.7510044e+09
4.6688671 2.8242264 -0.38252029 18 1 1.7510044e+09
4.1432271 0.51680058 -0.40571672 10 2 1.7510044e+09
3.6801765 -1.122334 -0.41661447 10 3 1.7510044e+09
3.3752031 -2.9288518 -0.43580738 14 4 1.7510044e+09
6.1253109 8.712204 -0.32724664 1 0 1.7510044e+09
4.6576872 2.7941968 -0.38266796 14 1 1.7510044e+09
4.1597571 0.50412256 -0.40789878 10 2 1.7510044e+09
3.7092237 -1.1467779 -0.41902712 10 3 1.7510044e+09
3.4096937 -2.9807591 -0.43767905 15 4 1.7510044e+09
6.0168333 8.4947338 -0.33077675 6 0 1.7510044e+09
4.6248622 2.7515039 -0.38197184 15 1 1.7510044e+09
4.1321611 0.48395512 -0.40426603 10 2 1.7510044e+09
3.7049379 -1.1617674 -0.41563889 10 3 1.7510044e+09
3.4401186 -3.0296726 -0.43896958 12 4 1.7510044e+09
5.8996511 8.2649021 -0.33331203 1 0 1.7510044e+09
4.621799 2.7267957 -0.38465628 9 1 1.7510044e+09
4.1336961 0.46878284 -0.40644434 10 2 1.7510044e+09
3.7101316 -1.1783487 -0.41670325 10 3 1.7510044e+09
3.529809 -3.1317081 -0.44772059 15 4 1.7510044e+09
5.8057256 8.0735731 -0.33683655 1 0 1.7510044e+09
4.5927901 2.6870365 -0.38515377 10 1 1.7510044e+09
4.1153722 0.45288733 -0.40522224 10 2 1.7510044e+09
3.725276 -1.1967726 -0.41746619 10 3 1.7510044e+09
3.6336565 -3.2477229 -0.45810848 18 4 1.7510044e+09
5.728128 7.9072862 -0.34096804 12 0 1.7510044e+09
4.563611 2.6475616 -0.38466763 9 1 1.7510044e+09
4.1469131 0.4402492 -0.40668887 9 2 1.7510044e+09
3.7305975 -1.2135845 -0.41578844 10 3 1.7510044e+09
3.7368364 -3.3646629 -0.46647143 21 4 1.7510044e+09
5.6360641 7.7204781 -0.34382382 3 0 1.7510044e+09
4.5427942 2.6132777 -0.38578144 10 1 1.7510044e+09
4.1187253 0.42199653 -0.40449965 10 2 1.7510044e+09
3.7544518 -1.237306 -0.41688055 10 3 1.7510044e+09
3.8096013 -3.4555471 -0.47260585 24 4 1.7510044e+09
5.5325165 7.5233488 -0.34569529 1 0 1.7510044e+09
4.5217881 2.5791824 -0.3868463 15 1 1.7510044e+09
4.1104116 0.40447804 -0.40424818 9 2 1.7510044e+09
3.7547467 -1.2526783 -0.41602328 10 3 1.7510044e+09
3.8522906 -3.5200915 -0.47582549 17 4 1.7510044e+09
5.4022441 7.2900643 -0.34222683 1 0 1.7510044e+09
4.4833517 2.5355256 -0.3845683 10 1 1.7510044e+09
4.1168203 0.38987902 -0.40473518 9 2 1.7510044e+09
3.7550473 -1.2680922 -0.41447076 10 3 1.7510044e+09
3.8403442 -3.5338526 -0.47036058 14 4 1.7510044e+09
5.3138714 7.1187277 -0.34436849 8 0 1.7510044e+09
4.4576473 2.4994693 -0.38426596 9 1 1.7510044e+09
4.1131301 0.37504801 -0.40496904 9 2 1.7510044e+09
3.7552171 -1.2835019 -0.41360554 10 3 1.7510044e+09
3.8203614 -3.5414107 -0.46491718 17 4 1.7510044e+09
5.2165022 6.9351153 -0.3485446 4 0 1.7510044e+09
4.4403381 2.4684162 -0.38645017 10 1 1.7510044e+09
4.1144772 0.35997009 -0.40496904 10 2 1.7510044e+09
3.7598648 -1.3012351 -0.412559 10 3 1.7510044e+09
3.7857511 -3.5352144 -0.45863432 19 4 1.7510044e+09
5.1560178 6.8051257 -0.35037693 4 0 1.7510044e+09
4.4054565 2.4279313 -0.38616958 11 1 1.7510044e+09
4.1158185 0.34344482 -0.4056899 10 2 1.7510044e+09
3.7833698 -1.3249173 -0.41425389 10 3 1.7510044e+09
3.76229 -3.5392089 -0.45100099 17 4 1.7510044e+09
5.065505 6.6350007 -0.35132802 5 0 1.7510044e+09
4.3878989 2.39733 -0.3864913 16 1 1.7510044e+09
4.101984 0.32859671 -0.40494177 10 2 1.7510044e+09
3.8021333 -1.3471529 -0.41471171 10 3 1.7510044e+09
3.7387297 -3.5429645 -0.44520155 19 4 1.7510044e+09
4.9940095 6.4942274 -0.3533895 5 0 1.7510044e+09
4.360939 2.3628716 -0.3868714 19 1 1.7510044e+09
4.1081767 0.31322211 -0.40543142 9 2 1.7510044e+09
3.8019886 -1.3628064 -0.41381329 10 3 1.7510044e+09
3.7122028 -3.5425034 -0.43900159 13 4 1.7510044e+09
4.9235454 6.3588471 -0.35534698 5 0 1.7510044e+09
4.3474345 2.3349831 -0.38751122 16 1 1.7510044e+09
4.1141896 0.29851773 -0.40664101 9 2 1.7510044e+09
3.8065236 -1.380197 -0.41271251 22 3 1.7510044e+09
3.685102 -3.5425384 -0.43283609 18 4 1.7510044e+09
4.8367286 6.159647 -0.36111346 9 0 1.7510044e+09
4.3205256 2.3001668 -0.38779706 10 1 1.7510044e+09
4.1152558 0.28343648 -0.40664101 10 2 1.7510044e+09
3.8249259 -1.4027529 -0.41382554 10 3 1.7510044e+09
3.6544666 -3.5389516 -0.42628753 20 4 1.7510044e+09
4.7806306 6.0316544 -0.36295521 6 0 1.7510044e+09
4.2847257 2.2609913 -0.38553911 18 1 1.7510044e+09
4.1162672 0.26835141 -0.40664101 10 2 1.7510044e+09
3.8430333 -1.4261581 -0.41420567 10 3 1.7510044e+09
3.6346545 -3.5456727 -0.42013541 16 4 1.7510044e+09
4.73702 5.931839 -0.36595866 5 0 1.7510044e+09
4.2751384 2.2359385 -0.38647872 42 1 1.7510044e+09
4.1072631 0.25193051 -0.40637815 10 2 1.7510044e+09
3.8286679 -1.4368141 -0.4110592 25 3 1.7510044e+09
3.6260712 -3.5620863 -0.41611212 17 4 1.7510044e+09
4.754365 5.9111247 -0.372338 5 0 1.7510044e+09
4.2610011 2.2086933 -0.38699549 35 1 1.7510044e+09
4.0982242 0.23630212 -0.40539539 10 2 1.7510044e+09
3.8561373 -1.4632691 -0.41240022 46 3 1.7510044e+09
3.5884511 -3.5510685 -0.408851 17 4 1.7510044e+09
4.6940064 5.7924795 -0.37377259 4 0 1.7510044e+09
4.2156324 2.1656108 -0.38548189 93 1 1.7510044e+09
4.1138973 0.2220806 -0.40758863 9 2 1.7510044e+09
3.8649518 -1.4828421 -0.4110027 50 3 1.7510044e+09
3.5686529 -3.5574594 -0.40276721 23 4 1.7510044e+09
4.6507583 5.6983309 -0.37775207 4 0 1.7510044e+09
4.1921544 2.1341662 -0.38674971 91 1 1.7510044e+09
4.1047454 0.20650093 -0.40660414 9 2 1.7510044e+09
3.8641968 -1.4988232 -0.41077334 78 3 1.7510044e+09
3.5312173 -3.5460398 -0.39561152 17 4 1.7510044e+09
4.6237893 5.6230869 -0.38152912 7 0 1.7510044e+09
4.1686249 2.1029849 -0.38632667 97 1 1.7510044e+09
4.0905962 0.19004558 -0.40512732 9 2 1.7510044e+09
3.8449802 -1.5076056 -0.40713155 118 3 1.7510044e+09
3.5190587 -3.5585883 -0.39124426 17 4 1.7510044e+09
4.5508628 5.4951878 -0.37892163 8 0 1.7510044e+09
4.1361308 2.0676095 -0.383423 98 1 1.7510044e+09
4.0963778 0.17527029 -0.40418839 10 2 1.7510044e+09
3.8350654 -1.5199586 -0.40376112 121 3 1.7510044e+09
3.4958007 -3.5610802 -0.3848497 18 4 1.7510044e+09
4.4779167 5.3669395 -0.37977162 9 0 1.7510044e+09
4.0897417 2.0257187 -0.38324451 100 1 1.7510044e+09
4.0918088 0.16005236 -0.40584207 10 2 1.7510044e+09
3.8338857 -1.5365504 -0.40352732 123 3 1.7510044e+09
3.4690402 -3.5598259 -0.37897432 17 4 1.7510044e+09
4.4193268 5.2592874 -0.37925616 8 0 1.7510044e+09
4.0881329 2.0062959 -0.38320252 102 1 1.7510044e+09
4.1273184 0.14629287 -0.40785235 10 2 1.7510044e+09
3.8470037 -1.5581969 -0.4018501 122 3 1.7510044e+09
3.4389555 -3.554929 -0.37103125 20 4 1.7510044e+09
4.3866634 5.181736 -0.38314107 8 0 1.7510044e+09
4.0863166 1.9868535 -0.38474318 98 1 1.7510044e+09
4.0928946 0.12933946 -0.40584207 10 2 1.7510044e+09
3.8459377 -1.5741982 -0.40160659 122 3 1.7510044e+09
3.4197955 -3.559906 -0.36683699 16 4 1.7510044e+09
4.2596397 4.9944539 -0.37619215 8 0 1.7510044e+09
4.0753145 1.9630687 -0.38700333 117 1 1.7510044e+09
4.0933414 0.11433738 -0.40584207 10 2 1.7510044e+09
3.8449349 -1.5902661 -0.39990902 114 3 1.7510044e+09
3.3931787 -3.5582111 -0.36106429 16 4 1.7510044e+09
4.1792197 4.8656578 -0.37432683 29 0 1.7510044e+09
4.0598187 1.9373043 -0.38722762 121 1 1.7510044e+09
4.0937328 0.099333763 -0.40584207 10 2 1.7510044e+09
3.8484583 -1.6082668 -0.39868191 97 3 1.7510044e+09
3.3632309 -3.552789 -0.35411042 21 4 1.7510044e+09
4.1641064 4.8122654 -0.37807813 79 0 1.7510044e+09
4.0486941 1.9138089 -0.3878572 114 1 1.7510044e+09
4.1089931 0.084636204 -0.40732145 9 2 1.7510044e+09
3.8519006 -1.6263143 -0.39744422 37 3 1.7510044e+09
3.3476036 -3.5610974 -0.34948447 20 4 1.7510044e+09
4.1708236 4.7861619 -0.38272876 153 0 1.7510044e+09
4.0509243 1.8967296 -0.39054859 108 1 1.7510044e+09
4.0942922 0.068606943 -0.40655676 10 2 1.7510044e+09
3.9239426 -1.6737033 -0.40325412 10 3 1.7510044e+09
3.3211243 -3.5589783 -0.34381011 20 4 1.7510044e+09
4.1551461 4.7330346 -0.38631552 146 0 1.7510044e+09
4.06251 1.8831697 -0.39332813 107 1 1.7510044e+09
4.0795908 0.053404767 -0.40507478 9 2 1.7510044e+09
3.9682643 -1.7098258 -0.40616766 9 3 1.7510044e+09
3.2981317 -3.5604117 -0.33767113 23 4 1.7510044e+09
4.1160378 4.6539707 -0.38653359 156 0 1.7510044e+09
4.0827765 1.8744152 -0.39699298 95 1 1.7510044e+09
4.0897098 0.038545746 -0.40606278 9 2 1.7510044e+09
3.9709928 -1.7291098 -0.40483582 10 3 1.7510044e+09
3.2791669 -3.5648184 -0.33190504 23 4 1.7510044e+09
4.072247 4.5721965 -0.38735712 118 0 1.7510044e+09
4.116632 1.8717206 -0.40200159 30 1 1.7510044e+09
4.0798764 0.022786567 -0.40507478 9 2 1.7510044e+09
4.0058379 -1.7617764 -0.4067325 9 3 1.7510044e+09
3.2561815 -3.5659738 -0.32666558 24 4 1.7510044e+09
4.0087748 4.4678526 -0.38501889 37 0 1.7510044e+09
4.1005664 1.8463097 -0.40214261 94 1 1.7510044e+09
4.0898838 0.0078520225 -0.40606278 10 2 1.7510044e+09
3.9767973 -1.7664275 -0.40214053 10 3 1.7510044e+09
3.2332659 -3.5670464 -0.3206118 22 4 1.7510044e+09
3.9731755 4.3987436 -0.385391 75 0 1.7510044e+09
4.0701571 1.8164082 -0.40013576 10 1 1.7510044e+09
4.0800071 -0.0056967679 -0.40436268 9 2 1.7510044e+09
4.0165453 -1.8000538 -0.40443715 9 3 1.7510044e+09
3.21768 -3.5748503 -0.31524304 19 4 1.7510044e+09
3.934473 4.3254461 -0.38734451 130 0 1.7510044e+09
4.0583758 1.7933424 -0.40067065 10 1 1.7510044e+09
4.0847926 -0.020675171 -0.40628171 9 2 1.7510044e+09
4.0462747 -1.8312156 -0.40732205 9 3 1.7510044e+09
3.1959405 -3.574465 -0.31175146 22 4 1.7510044e+09
3.8928199 4.2482672 -0.38574886 90 0 1.7510044e+09
4.0327945 1.7643998 -0.39982775 10 1 1.7510044e+09
4.0699043 -0.035517517 -0.40337643 10 2 1.7510044e+09
4.0398574 -1.8461807 -0.40344611 9 3 1.7510044e+09
3.1797562 -3.5827048 -0.30557489 21 4 1.7510044e+09
3.8708684 4.1933513 -0.38805142 39 0 1.7510044e+09
4.0161963 1.7396278 -0.399858 11 1 1.7510044e+09
4.0946236 -0.050742507 -0.40584207 9 2 1.7510044e+09
4.0377765 -1.8631498 -0.40157002 10 3 1.7510044e+09
3.1542428 -3.5790455 -0.29930606 14 4 1.7510044e+09
3.8444033 4.135623 -0.39087975 26 0 1.7510044e+09
4.007895 1.7202708 -0.40229958 10 1 1.7510044e+09
4.1042061 -0.066623531 -0.40826115 9 2 1.7510044e+09
4.0677571 -1.8933703 -0.40438443 9 3 1.7510044e+09
3.122771 -3.5671127 -0.29411787 15 4 1.7510044e+09
3.8184359 4.0776157 -0.39063624 21 0 1.7510044e+09
4.0147042 1.7041408 -0.40306079 10 1 1.7510044e+09
4.0891528 -0.081371605 -0.40534896 9 2 1.7510044e+09
4.065011 -1.9119825 -0.40012923 10 3 1.7510044e+09
3.1119325 -3.5836565 -0.28862908 23 4 1.7510044e+09
3.8118329 4.042191 -0.394362 24 0 1.7510044e+09
3.9930589 1.6777073 -0.40407988 10 1 1.7510044e+09
4.1036077 -0.096706867 -0.40826115 9 2 1.7510044e+09
4.1075277 -1.9503977 -0.40421525 10 3 1.7510044e+09
3.096308 -3.5909069 -0.28418794 25 4 1.7510044e+09
3.7988579 3.9989653 -0.39730623 9 0 1.7510044e+09
3.9668744 1.649626 -0.4023284 9 1 1.7510044e+09
4.1032767 -0.11246479 -0.40754476 10 2 1.7510044e+09
4.1095247 -1.9698361 -0.40271461 10 3 1.7510044e+09
3.0735495 -3.5910423 -0.27916571 23 4 1.7510044e+09
3.7615316 3.9307203 -0.39666575 9 0 1.7510044e+09
3.9731138 1.6343553 -0.4030782 11 1 1.7510044e+09
4.0879178 -0.12703966 -0.40606278 9 2 1.7510044e+09
4.1339149 -2.0001931 -0.40258953 10 3 1.7510044e+09
3.0495355 -3.5857275 -0.27223593 29 4 1.7510044e+09
nan nan nan 0 0 1.7510044e+09
3.9603088 1.6121418 -0.4049415 10 1 1.7510044e+09
4.0973701 -0.14236732 -0.40705076 9 2 1.7510044e+09
4.1401725 -2.0219812 -0.40148702 9 3 1.7510044e+09
3.0191755 -3.5790424 -0.26670644 19 4 1.7510044e+09
nan nan nan 0 0 1.7510044e+09
3.9430394 1.5882902 -0.40332636 10 1 1.7510044e+09
4.1069775 -0.15777415 -0.4058868 10 2 1.7510044e+09
4.1375146 -2.0394986 -0.39789569 9 3 1.7510044e+09
3.0100768 -3.5936339 -0.26126379 29 4 1.7510044e+09
3.1790895 3.2509162 -0.34428382 38 0 1.7510044e+09
3.9440143 1.5719064 -0.40507716 10 1 1.7510044e+09
4.0765133 -0.17228201 -0.40293846 9 2 1.7510044e+09
4.1570206 -2.0680866 -0.39723247 10 3 1.7510044e+09
2.9810998 -3.5856557 -0.25498965 20 4 1.7510044e+09
3.1766915 3.2247345 -0.34830439 40 0 1.7510044e+09
3.9211643 1.5477508 -0.40517101 10 1 1.7510044e+09
4.1055355 -0.18858543 -0.40732145 9 2 1.7510044e+09
4.1939974 -2.1056936 -0.40067559 10 3 1.7510044e+09
2.9597678 -3.5841084 -0.2509256 21 4 1.7510044e+09
3.1912673 3.2169919 -0.35185158 39 0 1.7510044e+09
3.9081347 1.5260758 -0.40472209 10 1 1.7510044e+09
4.1197968 -0.20437483 -0.40808088 9 2 1.7510044e+09
4.1998324 -2.1279323 -0.3986648 9 3 1.7510044e+09
2.9442382 -3.5907586 -0.24579357 26 4 1.7510044e+09
3.2027745 3.2050114 -0.35659662 14 0 1.7510044e+09
3.88153 1.4977578 -0.40353987 10 1 1.7510044e+09
4.0842395 -0.21762004 -0.4046351 10 2 1.7510044e+09
4.2054987 -2.1502104 -0.39745733 10 3 1.7510044e+09
2.9173591 -3.5872507 -0.23989452 23 4 1.7510044e+09
3.3416224 3.3195331 -0.37400764 12 0 1.7510044e+09
3.8774974 1.4798969 -0.40474764 10 1 1.7510044e+09
4.0983472 -0.23415625 -0.40539539 10 2 1.7510044e+09
4.215486 -2.1748431 -0.39665076 9 3 1.7510044e+09
2.9050016 -3.5976374 -0.23424532 25 4 1.7510044e+09
3.5451636 3.496006 -0.3997246 9 0 1.7510044e+09
3.8778517 1.4645447 -0.4057093 9 1 1.7510044e+09
4.092495 -0.24887386 -0.40490401 9 2 1.7510044e+09
4.2394404 -2.2050326 -0.39623132 10 3 1.7510044e+09
2.8806596 -3.5917952 -0.23001914 22 4 1.7510044e+09
3.5071456 3.4344509 -0.40012029 9 0 1.7510044e+09
3.8783326 1.4485064 -0.40739003 10 1 1.7510044e+09
4.1212773 -0.26578873 -0.40857315 10 2 1.7510044e+09
4.2615581 -2.2383168 -0.39744329 10 3 1.7510044e+09
2.8614035 -3.5947011 -0.22470893 20 4 1.7510044e+09
3.4944973 3.3970637 -0.40067929 10 0 1.7510044e+09
3.8559067 1.422519 -0.40660414 10 1 1.7510044e+09
4.1204176 -0.28090191 -0.40713155 9 2 1.7510044e+09
4.2800498 -2.2680829 -0.39568493 10 3 1.7510044e+09
2.8570101 -3.6176021 -0.22061451 19 4 1.7510044e+09
3.4588437 3.3401668 -0.40038881 10 0 1.7510044e+09
3.8651421 1.4113822 -0.40853271 10 1 1.7510044e+09
4.119482 -0.29528818 -0.40641075 9 2 1.7510044e+09
4.2858753 -2.2894056 -0.39436209 10 3 1.7510044e+09
2.8543866 -3.6390262 -0.21648848 18 4 1.7510044e+09
3.4359412 3.2914975 -0.40122265 9 0 1.7510044e+09
3.8378131 1.3839681 -0.40721095 10 1 1.7510044e+09
4.1182637 -0.31182238 -0.40641075 10 2 1.7510044e+09
4.3207569 -2.3303804 -0.39497966 10 3 1.7510044e+09
2.8497329 -3.6619616 -0.2123308 25 4 1.7510044e+09
3.4080148 3.2408745 -0.40070543 9 0 1.7510044e+09
3.8329802 1.3671247 -0.40905887 10 1 1.7510044e+09
4.117023 -0.32690892 -0.40713155 10 2 1.7510044e+09
4.3429537 -2.362941 -0.39606085 10 3 1.7510044e+09
2.8468719 -3.6834219 -0.20814152 20 4 1.7510044e+09
3.3502357 3.163733 -0.39666176 10 0 1.7510044e+09
3.8190637 1.3464032 -0.40847215 10 1 1.7510044e+09
4.1158676 -0.34200218 -0.40641075 10 2 1.7510044e+09
4.3825693 -2.405355 -0.39696261 10 3 1.7510044e+09
2.8158612 -3.6697018 -0.20276508 16 4 1.7510044e+09
3.3433845 3.1341612 -0.39851695 15 0 1.7510044e+09
3.8054426 1.3244507 -0.40857473 10 1 1.7510044e+09
4.1095667 -0.35737237 -0.40592107 10 2 1.7510044e+09
4.395709 -2.4335732 -0.39631078 21 3 1.7510044e+09
2.8230784 -3.7085049 -0.19860379 24 4 1.7510044e+09
3.3034945 3.0740972 -0.39717832 36 0 1.7510044e+09
3.8096786 1.3117776 -0.40998122 10 1 1.7510044e+09
4.1182108 -0.37333718 -0.40617865 10 2 1.7510044e+09
4.4487972 -2.4822743 -0.39825857 27 3 1.7510044e+09
2.7957847 -3.6980314 -0.19430302 34 4 1.7510044e+09
3.2852168 3.0346973 -0.39757425 40 0 1.7510044e+09
3.7954893 1.2913507 -0.40935609 10 1 1.7510044e+09
4.1416559 -0.39077246 -0.40789649 9 2 1.7510044e+09
4.4737868 -2.5198205 -0.39779153 30 3 1.7510044e+09
2.8033197 -3.736387 -0.19087721 26 4 1.7510044e+09
3.263026 2.9921086 -0.39745325 95 0 1.7510044e+09
3.7910087 1.2728697 -0.41043428 10 1 1.7510044e+09
4.1155047 -0.40352875 -0.40473518 10 2 1.7510044e+09
4.5513334 -2.5855172 -0.40368849 22 3 1.7510044e+09
2.7801406 -3.7352843 -0.18457611 27 4 1.7510044e+09
3.2511015 2.96035 -0.39860803 92 0 1.7510044e+09
3.7764103 1.2533171 -0.40978125 10 1 1.7510044e+09
4.123826 -0.42033738 -0.4057093 9 2 1.7510044e+09
4.6025691 -2.6369832 -0.4062936 27 3 1.7510044e+09
2.7714574 -3.7481453 -0.18070631 33 4 1.7510044e+09
3.23212 2.9214694 -0.39879879 91 0 1.7510044e+09
3.7622325 1.2318678 -0.41049621 10 1 1.7510044e+09
4.1320844 -0.43648711 -0.40740857 10 2 1.7510044e+09
4.6276522 -2.6739306 -0.40561733 26 3 1.7510044e+09
2.7624264 -3.7674742 -0.17538624 35 4 1.7510044e+09
3.2166054 2.886095 -0.39937982 96 0 1.7510044e+09
3.7519662 1.2147454 -0.41032574 10 1 1.7510044e+09
4.1354737 -0.45217764 -0.40717041 10 2 1.7510044e+09
4.6525273 -2.711098 -0.40488511 22 3 1.7510044e+09
2.7506657 -3.7762563 -0.17130934 30 4 1.7510044e+09
3.2045951 2.8541868 -0.40036422 96 0 1.7510044e+09
3.7419779 1.1963768 -0.41083047 10 1 1.7510044e+09
4.1338596 -0.46733984 -0.40644434 9 2 1.7510044e+09
4.7072864 -2.7661676 -0.40669692 43 3 1.7510044e+09
2.7398379 -3.7905059 -0.16659486 27 4 1.7510044e+09
3.1960187 2.8256102 -0.40325412 94 0 1.7510044e+09
3.7177486 1.1736284 -0.40907115 24 1 1.7510044e+09
4.1372166 -0.48235136 -0.40620357 9 2 1.7510044e+09
4.7583385 -2.8174376 -0.40900132 22 3 1.7510044e+09
2.7091949 -3.7758033 -0.16147158 26 4 1.7510044e+09
3.1836421 2.7939458 -0.40412742 91 0 1.7510044e+09
3.7315862 1.1622597 -0.411479 10 1 1.7510044e+09
4.1550798 -0.50134832 -0.40741435 9 2 1.7510044e+09
4.828567 -2.8852611 -0.41208169 23 3 1.7510044e+09
2.683841 -3.7695603 -0.15593138 32 4 1.7510044e+09
3.1635714 2.7558722 -0.40398982 92 0 1.7510044e+09
3.7212882 1.1441067 -0.41262653 10 1 1.7510044e+09
4.1335697 -0.51266551 -0.40620357 10 2 1.7510044e+09
4.913085 -2.9579175 -0.41811699 14 3 1.7510044e+09
2.6794119 -3.7912798 -0.151575 35 4 1.7510044e+09
3.1502678 2.7250004 -0.40547657 92 0 1.7510044e+09
3.6967719 1.1217558 -0.41081321 10 1 1.7510044e+09
4.1364846 -0.5298959 -0.40596104 9 2 1.7510044e+09
4.9711933 -3.0165944 -0.41987482 28 3 1.7510044e+09
2.6368797 -3.7602644 -0.14593558 37 4 1.7510044e+09
3.1350679 2.6965837 -0.40473518 92 0 1.7510044e+09
3.7045138 1.112817 -0.41269213 10 1 1.7510044e+09
4.1401119 -0.54064602 -0.40644544 10 2 1.7510044e+09
5.0879779 -3.1130328 -0.42651367 77 3 1.7510044e+09
2.6152864 -3.7573042 -0.1390674 36 4 1.7510044e+09
3.1366246 2.6789305 -0.40736094 92 0 1.7510044e+09
3.6798296 1.0907139 -0.41084918 10 1 1.7510044e+09
4.1677666 -0.55980098 -0.40861818 10 2 1.7510044e+09
5.1474061 -3.1691828 -0.42905453 132 3 1.7510044e+09
2.5998068 -3.7559984 -0.13557473 37 4 1.7510044e+09
3.1385596 2.6607504 -0.409969 39 0 1.7510044e+09
3.6884365 1.0785743 -0.41272286 10 1 1.7510044e+09
4.155767 -0.5751819 -0.40618658 9 2 1.7510044e+09
5.2805309 -3.2766204 -0.43892151 59 3 1.7510044e+09
2.5867457 -3.7651463 -0.13158835 37 4 1.7510044e+09
3.1137567 2.6201694 -0.40905887 39 0 1.7510044e+09
3.6778965 1.0608749 -0.41245726 10 1 1.7510044e+09
4.1637621 -0.59036702 -0.40641627 10 2 1.7510044e+09
5.467618 -3.4205287 -0.44872433 35 3 1.7510044e+09
2.5561144 -3.7499347 -0.12597217 40 4 1.7510044e+09
3.1077373 2.5957079 -0.41129911 34 0 1.7510044e+09
3.6625392 1.0412288 -0.41297299 31 1 1.7510044e+09
4.1613941 -0.60633999 -0.40715027 10 2 1.7510044e+09
5.5648713 -3.5098145 -0.45545086 18 3 1.7510044e+09
2.5514958 -3.7713785 -0.12082543 41 4 1.7510044e+09
3.0824902 2.5554993 -0.41024595 10 0 1.7510044e+09
3.6614058 1.0264173 -0.41376117 10 1 1.7510044e+09
4.1542926 -0.62086314 -0.40593529 10 2 1.7510044e+09
5.5648646 -3.5383863 -0.45188302 10 3 1.7510044e+09
2.5272279 -3.7637491 -0.11633874 36 4 1.7510044e+09
3.0646751 2.5218346 -0.41014224 10 0 1.7510044e+09
3.6506312 1.0089797 -0.4134607 10 1 1.7510044e+09
4.1618977 -0.63760328 -0.40616241 10 2 1.7510044e+09
5.5017252 -3.5266235 -0.44321904 11 3 1.7510044e+09
2.5245671 -3.789726 -0.11208332 35 4 1.7510044e+09
3.0659714 2.5041115 -0.41187805 12 0 1.7510044e+09
3.6302571 0.98904109 -0.4114044 10 1 1.7510044e+09
4.1743531 -0.6551792 -0.40686521 10 2 1.7510044e+09
5.4345498 -3.5117328 -0.43430355 12 3 1.7510044e+09
2.4920995 -3.7694385 -0.10570147 42 4 1.7510044e+09
3.059397 2.4801042 -0.41324535 10 0 1.7510044e+09
3.6289499 0.97373194 -0.41348416 10 1 1.7510044e+09
4.1619096 -0.66961032 -0.40664253 10 2 1.7510044e+09
5.4176517 -3.5290287 -0.43058336 19 3 1.7510044e+09
2.476234 -3.7740109 -0.10164549 35 4 1.7510044e+09
3.0255148 2.4343157 -0.41157258 9 0 1.7510044e+09
3.6227455 0.957847 -0.41369835 13 1 1.7510044e+09
4.1644773 -0.68569154 -0.40564933 10 2 1.7510044e+09
5.3972082 -3.5426068 -0.42541182 13 3 1.7510044e+09
2.4624507 -3.7831628 -0.096130706 38 4 1.7510044e+09
3.0185952 2.4105754 -0.4128359 10 0 1.7510044e+09
3.5874796 0.93446839 -0.41189718 10 1 1.7510044e+09
4.2012706 -0.70757514 -0.40873265 10 2 1.7510044e+09
5.3510237 -3.5404222 -0.42054209 11 3 1.7510044e+09
2.4411376 -3.7792065 -0.091885194 33 4 1.7510044e+09
2.9920068 2.3714354 -0.41205227 12 0 1.7510044e+09
3.6099942 0.92621744 -0.4154067 10 1 1.7510044e+09
4.2034831 -0.72380126 -0.40995458 10 2 1.7510044e+09
5.3133478 -3.5435627 -0.41412142 10 3 1.7510044e+09
2.4300175 -3.7924166 -0.08727061 34 4 1.7510044e+09
2.9964879 2.3571568 -0.4148429 35 0 1.7510044e+09
3.5893641 0.90624923 -0.41328347 40 1 1.7510044e+09
4.200943 -0.73922771 -0.40846568 9 2 1.7510044e+09
5.2757759 -3.5465107 -0.40663284 10 3 1.7510044e+09
2.4034002 -3.7798579 -0.082095698 51 4 1.7510044e+09
2.9852898 2.3306866 -0.41478279 9 0 1.7510044e+09
3.5684102 0.88705891 -0.41179326 10 1 1.7510044e+09
4.1981435 -0.75536531 -0.40772122 9 2 1.7510044e+09
5.2381887 -3.5491874 -0.40030056 10 3 1.7510044e+09
2.3928969 -3.7925117 -0.078274041 39 4 1.7510044e+09
2.9541829 2.2890224 -0.41325331 9 0 1.7510044e+09
3.5617051 0.87154371 -0.41324031 10 1 1.7510044e+09
4.1854863 -0.76893568 -0.40751249 9 2 1.7510044e+09
5.2087765 -3.5571845 -0.39683607 10 3 1.7510044e+09
2.3763771 -3.7970967 -0.07271421 44 4 1.7510044e+09
2.9543874 2.2719007 -0.4154067 9 0 1.7510044e+09
3.5697153 0.85898989 -0.41508195 10 1 1.7510044e+09
4.1729951 -0.7824626 -0.40507716 10 2 1.7510044e+09
5.1637216 -3.5529096 -0.38885477 13 3 1.7510044e+09
2.4000711 -3.8648913 -0.069086201 40 4 1.7510044e+09
2.9387636 2.2427936 -0.41466445 10 0 1.7510044e+09
3.5437615 0.83901596 -0.41234747 10 1 1.7510044e+09
4.199502 -0.80337697 -0.40718028 9 2 1.7510044e+09
5.1344824 -3.56059 -0.38325438 10 3 1.7510044e+09
2.4075894 -3.9073656 -0.0640864 39 4 1.7510044e+09
2.914932 2.2077465 -0.41403508 31 0 1.7510044e+09
3.5465317 0.82595628 -0.41488978 10 1 1.7510044e+09
4.2110415 -0.82235795 -0.40860233 13 2 1.7510044e+09
5.0888362 -3.5566273 -0.37755474 10 3 1.7510044e+09
2.3958874 -3.920476 -0.060146689 34 4 1.7510044e+09
2.9226563 2.1967862 -0.41786408 10 0 1.7510044e+09
3.5155683 0.80452681 -0.41281605 10 1 1.7510044e+09
4.1786399 -0.83194131 -0.40650183 10 2 1.7510044e+09
5.0432315 -3.5523379 -0.37297347 10 3 1.7510044e+09
2.3433313 -3.8647316 -0.055220846 38 4 1.7510044e+09
