# .PCD v0.7 - Point Cloud Data file format
VERSION 0.7
FIELDS x y z intensity ring
SIZE 4 4 4 4 2
TYPE F F F F U
COUNT 1 1 1 1 1
WIDTH 1349
HEIGHT 1
VIEWPOINT 0 0 0 1 0 0 0
POINTS 1349
DATA ascii
7.9178324 18.157745 0.34576708 3 8
0.81352776 1.8647523 -0.4696978 1 1
7.878562 18.050489 1.0321698 3 9
0.96520615 2.2113733 -0.46900854 1 2
5.9991298 13.738002 1.3115195 1 10
1.1751884 2.6899004 -0.46492329 1 3
5.962059 13.640126 1.8277966 4 11
1.5366445 3.5138967 -0.47090316 1 4
5.8821912 13.444613 2.3243036 8 12
2.1538429 4.922925 -0.47011805 2 5
5.8311067 13.321521 2.8266447 10 13
2.865082 6.542347 -0.3743068 2 6
5.579896 12.735512 3.2100515 22 14
3.8920429 8.878953 -0.16921853 2 7
5.7415547 13.092046 3.8305221 13 15
0.71269065 1.6197135 -0.47415653 12 0
7.9586039 18.078754 0.34478974 3 8
0.81610429 1.8529842 -0.46744829 1 1
6.1246576 13.899605 0.79602998 2 9
0.97133577 2.2043979 -0.46824533 1 2
6.0357995 13.691452 1.3090792 1 10
1.1869618 2.6912043 -0.46586189 1 3
6.0064273 13.611968 1.8268216 10 11
1.5489019 3.5085111 -0.47090316 1 4
5.9075346 13.375213 2.3158562 2 12
2.1565235 4.8825717 -0.46698046 2 5
5.881536 13.310064 2.8285527 12 13
2.8943639 6.5469189 -0.37514415 2 6
5.6290441 12.72665 3.2127509 23 14
4.0006943 9.040864 -0.17256939 2 7
5.7958255 13.091353 3.836216 6 15
0.71598715 1.6119194 -0.47260359 12 0
7.9745674 17.944872 0.34276527 3 8
0.8209846 1.8465627 -0.4665485 1 1
6.0960226 13.704779 0.78608614 2 9
0.9838115 2.2117567 -0.47053501 1 2
6.0965133 13.699427 1.3118682 1 10
1.1979561 2.6906533 -0.46648762 1 3
6.0482488 13.578227 1.8251154 8 11
1.5579065 3.4958308 -0.46992823 1 4
5.930058 13.300383 2.3064699 2 12
2.1816683 4.8932104 -0.46872357 2 5
6.0207391 13.497435 2.8728204 8 13
2.9123144 6.5258331 -0.37451613 2 6
5.6750269 12.710481 3.2136507 5 14
3.9784024 8.9063387 -0.17026567 2 7
5.9084835 13.220962 3.8802152 9 15
0.72556174 1.6182241 -0.47519177 11 0
8.0494299 17.944296 0.34328881 3 8
0.8314144 1.8525753 -0.46879801 1 1
6.1381006 13.670661 0.78535342 2 9
0.98670167 2.1975632 -0.46824533 1 2
6.9778457 15.533669 1.4898401 2 10
1.2113892 2.6954644 -0.46805197 1 3
6.1192193 13.609534 1.8321838 2 11
1.5652127 3.4795094 -0.46846578 1 4
6.6493239 14.774731 2.5661514 2 12
2.2118173 4.9146361 -0.47151256 2 5
6.1339092 13.623131 2.9041131 8 13
2.9416404 6.5301952 -0.37535352 2 6
7.563355 16.782215 4.2497749 16 14
4.0374112 8.9543781 -0.17145245 2 7
5.8648367 13.001266 3.8217223 7 15
0.72244471 1.5963213 -0.46949777 13 0
8.1169643 17.927023 0.34349826 3 8
0.8378765 1.8496617 -0.46879801 1 1
6.1578569 13.593832 0.7821086 2 9
0.99436718 2.1941051 -0.46824533 1 2
6.2923732 13.877913 1.3331342 1 10
1.2191594 2.6876214 -0.46742624 1 3
6.2232976 13.712818 1.8490019 2 11
1.5833066 3.4887605 -0.47041571 1 4
6.7129779 14.784974 2.5717828 6 12
2.2256646 4.8996286 -0.47081533 2 5
6.1716819 13.580187 2.8995337 4 13
2.9710257 6.5344343 -0.37619087 2 6
5.7396293 12.623664 3.2015033 5 14
4.0422459 8.8863335 -0.1704053 2 7
5.8607035 12.878005 3.7911816 10 15
0.73254812 1.6044611 -0.47260359 12 0
8.5211744 18.654856 0.35798377 3 8
0.84562516 1.850418 -0.4696978 1 1
6.1904469 13.546089 0.7805385 7 9
1.0065351 2.2015085 -0.47053501 1 2
6.3715138 13.92944 1.3401066 1 10
1.2231326 2.6727865 -0.46554902 1 3
6.2579913 13.668643 1.8458333 2 11
1.5948663 3.4834914 -0.47041571 1 4
6.3901486 13.950866 2.4303663 2 12
2.2402389 4.8885989 -0.4704667 2 5
6.2101398 13.545367 2.8964806 8 13
2.996011 6.5318069 -0.37660959 2 6
5.778213 12.597474 3.1997039 9 14
4.0833664 8.898325 -0.17089397 2 7
5.8759751 12.798806 3.773582 18 15
0.74028885 1.6072873 -0.47415653 12 0
8.8106155 19.120493 0.36747789 4 8
0.84441441 1.8316756 -0.46564871 1 1
6.2502384 13.551604 0.7821086 2 9
1.0121851 2.1945934 -0.46977177 1 2
6.4201717 13.913665 1.3406296 5 10
1.2361296 2.6776829 -0.46711335 1 3
6.2616696 13.557704 1.8336463 8 11
1.6070155 3.4779031 -0.47041571 1 4
6.4404683 13.932058 2.4309919 2 12
2.2581112 4.8847594 -0.47081533 2 5
6.205574 13.417786 2.8735836 4 13
3.0176537 6.5218368 -0.37660959 2 6
8.8331051 19.081591 4.854444 4 14
4.1665072 8.9965181 -0.17305806 2 7
5.9141092 12.764197 3.7694409 6 15
0.74263805 1.5976858 -0.47208595 12 0
8.2904358 17.827616 0.34318414 3 8
0.85244596 1.8322514 -0.4665485 1 1
6.3371201 13.614806 0.78702819 2 9
1.021497 2.1946063 -0.47053501 1 2
6.4855256 13.92729 1.3441159 1 10
1.244633 2.671562 -0.46680051 1 3
6.2913437 13.497982 1.8285278 8 11
1.6191467 3.4722722 -0.47041571 1 4
6.6076412 14.163699 2.4754193 4 12
2.2835684 4.8949051 -0.47255844 2 5
6.0921168 13.052692 2.7999313 8 13
3.0420923 6.5148816 -0.37681893 2 6
6.6693864 14.276502 3.6379085 1 14
4.2935591 9.1866302 -0.1770023 2 7
5.9308109 12.683973 3.7518408 6 15
0.75805581 1.6160715 -0.47829759 11 0
8.3245773 17.738831 0.34203228 3 8
0.86546254 1.8433765 -0.47014773 1 1
6.4083853 13.643219 0.78995901 2 9
1.0241441 2.1803653 -0.46824533 1 2
6.4400401 13.704412 1.3247672 1 10
1.2589941 2.6779265 -0.4686777 1 3
6.3553233 13.511864 1.8334025 8 11
1.6278759 3.459415 -0.46944076 1 4
6.5981483 14.01544 2.4535184 6 12
2.3040366 4.8941135 -0.47325566 2 5
6.1460109 13.049107 2.8037474 14 13
3.0716245 6.5186777 -0.37765631 2 6
6.706706 14.226699 3.6311598 7 14
4.2445674 8.9997663 -0.17368636 2 7
5.9923592 12.699886 3.7627115 4 15
0.75459963 1.5942087 -0.47260359 12 0
8.3830271 17.702433 0.34189263 3 8
0.8693893 1.8350606 -0.46879801 1 1
8.2746124 17.45776 1.0124915 3 9
1.0317471 2.1767778 -0.46824533 1 2
6.484427 13.674645 1.32407 11 10
1.2666416 2.669946 -0.46805197 1 3
6.3990359 13.482429 1.8324275 6 11
1.6441997 3.4626768 -0.47065943 1 4
6.6114349 13.917381 2.440378 4 12
2.3279469 4.9004378 -0.47465014 2 5
6.2193246 13.086093 2.8163409 6 13
3.0977924 6.51513 -0.378075 2 6
6.7747455 14.241915 3.6410577 5 14
4.2020488 8.8296127 -0.17068455 2 7
6.0624013 12.732961 3.778758 3 15
0.7618255 1.5950512 -0.47363886 12 0
8.4482231 17.680277 0.34203228 3 8
0.87831068 1.8372895 -0.47014773 1 1
6.5344925 13.663015 0.79372716 2 9
1.0393399 2.1731627 -0.46824533 1 2
6.5424438 13.673492 1.3261617 1 10
1.2725416 2.6583817 -0.46680051 1 3
6.4837894 13.538784 1.843152 6 11
1.6545622 3.4533355 -0.47017199 1 4
6.6736345 13.922721 2.4453838 2 12
2.3347032 4.8707223 -0.47255844 2 5
6.3608961 13.264339 2.8594639 6 13
3.1239729 6.5114794 -0.37849367 2 6
6.8185124 14.205882 3.6379085 3 14
4.3237362 9.0041676 -0.17434955 2 7
6.8889885 14.339865 4.2627501 16 15
0.76738828 1.5923823 -0.47363886 12 0
8.5333223 17.69932 0.34297469 3 8
0.88133264 1.8271911 -0.46834809 1 1
6.5804062 13.636525 0.79351783 2 9
1.0469187 2.1695218 -0.46824533 1 2
6.8084092 14.102726 1.3700883 1 10
1.2852505 2.6610382 -0.46805197 1 3
6.5232396 13.49998 1.8409585 8 11
1.672652 3.4600508 -0.47187814 1 4
6.7368174 13.929571 2.4507027 8 12
2.3568969 4.8733044 -0.47360432 2 5
6.342175 13.10774 2.8304608 14 13
3.1536403 6.5149188 -0.37933105 2 6
7.9297838 16.374363 4.2002859 2 14
4.4990063 9.2859526 -0.18010885 2 7
6.8547363 14.141891 4.2109861 7 15
0.77885568 1.6018554 -0.47726235 11 0
9.0271721 18.557749 0.36021769 3 8
0.88429397 1.8170948 -0.4665485 1 1
6.6194763 13.602056 0.79278517 2 9
1.0579236 2.1729143 -0.46977177 1 2
6.8733039 14.111114 1.3732258 1 10
1.2953963 2.6583116 -0.46836486 1 3
6.5659714 13.468207 1.8397398 2 11
1.6829803 3.4506223 -0.47139066 1 4
6.768249 13.876973 2.4453838 8 12
2.3686504 4.8543043 -0.47255844 2 5
6.4180322 13.147273 2.8438172 8 13
3.1737351 6.498486 -0.37901706 2 6
6.9312167 14.185946 3.6451068 1 14
4.508709 9.2278605 -0.17927112 2 7
6.5834489 13.468235 4.0168715 6 15
0.78274131 1.5956579 -0.47622705 11 0
9.3211679 19.001675 0.36943254 4 8
0.89374858 1.8211502 -0.46834809 1 1
6.6792364 13.603968 0.79425055 2 9
1.0620404 2.1621594 -0.46824533 1 2
6.9295449 14.101341 1.3746203 1 10
1.3050749 2.6557741 -0.4686777 1 3
6.9031148 14.041365 1.9211485 2 11
1.69091 3.4378965 -0.47041571 1 4
6.8244934 13.869215 2.4481997 8 12
2.3803022 4.8352814 -0.47151256 2 5
6.4772062 13.157621 2.8506866 2 13
3.2014461 6.5004668 -0.37974975 2 6
6.9609857 14.127927 3.6361091 3 14
4.5886331 9.3089218 -0.18115598 2 7
6.9927058 14.179803 4.2363501 7 15
0.78374529 1.5843956 -0.47363886 12 0
8.8304329 17.8435 0.3475123 3 8
0.90528858 1.8284976 -0.47104752 1 1
6.7302327 13.587728 0.79466927 2 9
1.0692041 2.1586258 -0.46824533 1 2
6.9621186 14.049719 1.3718314 1 10
1.3143381 2.6512022 -0.4686777 1 3
6.6936574 13.496116 1.849733 2 11
1.7081935 3.4426432 -0.47187814 1 4
6.8509097 13.801073 2.440378 10 12
2.4051812 4.8452077 -0.47325566 2 5
12.675932 25.524323 5.539567 4 13
3.2427781 6.5268149 -0.38194785 2 6
6.9877105 14.058169 3.6244116 7 14
4.7030129 9.4575777 -0.18436721 2 7
6.8012233 13.671012 4.0914116 1 15
0.79013342 1.583379 -0.47415653 12 0
8.839963 17.70701 0.34545293 3 8
0.90992475 1.8218396 -0.47014773 1 1
6.7999368 13.60882 0.79728603 2 9
1.0819973 2.1654179 -0.47053501 1 2
9.7033224 19.410913 1.8986006 2 10
1.3209347 2.6412978 -0.46773914 1 3
7.0844665 14.159706 1.94406 2 11
1.7219782 3.4402092 -0.47236562 1 4
6.8733964 13.725851 2.4313047 4 12
2.4202964 4.8332186 -0.47290704 2 5
8.2748795 16.517365 3.5910256 2 13
3.2628582 6.5100985 -0.38163382 2 6
6.93542 13.831615 3.5722227 3 14
4.6893711 9.3481588 -0.18255216 2 7
6.9372902 13.823302 4.1442108 1 15
0.78957564 1.5685321 -0.47053304 12 0
8.900815 17.674261 0.34541804 3 8
0.91364777 1.8134313 -0.46879801 1 1
6.8441329 13.584409 0.79718137 2 9
1.0877826 2.1581213 -0.46977177 1 2
7.2089429 14.296089 1.4007671 2 10
1.3274767 2.6313801 -0.46680051 1 3
7.1427979 14.152611 1.9464973 2 11
1.7429228 3.4518976 -0.474803 1 4
6.748817 13.366183 2.3715467 4 12
2.4389484 4.8282981 -0.47325566 2 5
9.5898905 18.976528 4.1329231 6 13
3.2855613 6.4986696 -0.38163382 2 6
6.9431968 13.727332 3.5515273 3 14
4.7239575 9.339694 -0.1826918 2 7
6.7763705 13.391698 4.0215306 7 15
0.80204284 1.5795468 -0.47467417 11 0
8.9711504 17.667826 0.34587181 3 8
0.91612554 1.803442 -0.46699843 1 1
6.8978477 13.572898 0.79791403 2 9
1.0988679 2.1613116 -0.47129822 1 2
7.9209146 15.572545 1.5285373 2 10
1.3361949 2.6269636 -0.46680051 1 3
7.1203718 13.992616 1.9277295 6 11
1.7453535 3.4284093 -0.47236562 1 4
6.7739134 13.300301 2.364038 8 12
2.4648342 4.8375068 -0.4749988 2 5
8.4031687 16.49214 3.5978947 5 13
3.3107207 6.4948568 -0.38205251 2 6
7.3914952 14.494127 3.7562325 7 14
4.703824 9.2198324 -0.18066731 5 7
6.8582087 13.436789 4.0422359 4 15
0.80991709 1.5820373 -0.47622705 11 0
9.0510044 17.671995 0.3465699 3 8
0.92419297 1.8037016 -0.46789822 1 1
6.9109392 13.487738 0.79425055 2 9
1.0997597 2.1454263 -0.46862692 1 2
7.9652429 15.532009 1.5271429 2 10
1.3462589 2.6240408 -0.46711335 1 3
7.1800404 13.988873 1.9306543 2 11
1.7518704 3.4117 -0.47090316 1 4
6.8270087 13.295336 2.3671668 4 12
2.4808614 4.8293076 -0.4749988 2 5
8.4840078 16.508112 3.6078167 5 13
3.3425057 6.5010219 -0.38309923 2 6
7.5668402 14.710847 3.8192189 14 14
4.7316265 9.1988506 -0.1805626 2 7
6.8647094 13.340111 4.0199776 1 15
0.80568516 1.5603187 -0.47053304 12 0
13.062928 25.298134 0.49697474 12 8
0.93195844 1.8040895 -0.46879801 1 1
10.575425 20.463223 1.2071813 5 9
1.1054392 2.1380863 -0.46786368 1 2
7.3722606 14.25295 1.4039048 2 10
1.360399 2.6300888 -0.46899059 1 3
7.270184 14.04961 1.9423537 2 11
1.7686496 3.4164495 -0.47236562 1 4
6.8761053 13.276684 2.3681052 8 12
2.4977028 4.8206186 -0.4749988 2 5
7.8703518 15.189942 3.3254194 2 13
3.3732357 6.5076346 -0.38414595 2 6
4.7563386 9.1680775 -0.18028337 7 7
6.9290357 13.35036 4.0303302 15 15
0.81112647 1.557497 -0.47053304 12 0
9.4652014 18.167011 0.3575649 3 8
0.94126636 1.805846 -0.47014773 1 1
7.0636101 13.545967 0.80063552 2 9
1.1165272 2.1411772 -0.46939012 1 2
8.1499615 15.622643 1.5416108 2 10
1.3645453 2.614578 -0.46711335 1 3
7.2554817 13.896171 1.9248046 2 11
1.7885113 3.4240205 -0.47431552 1 4
6.9210582 13.244391 2.3668537 8 12
2.5089791 4.8012748 -0.47395292 2 5
9.9252071 18.985167 4.1642156 3 13
3.402617 6.505847 -0.38477397 2 6
7.2239575 13.806416 3.5974171 1 14
4.8270068 9.2214489 -0.18167956 2 7
6.9348993 13.242728 4.0054836 6 15
0.82374507 1.5683383 -0.47467417 11 0
9.5378656 18.151562 0.35791397 3 8
0.93849522 1.7853006 -0.46564871 1 1
7.1145668 13.5283 0.80105424 2 9
1.1303908 2.1494305 -0.47206149 1 2
7.5569248 14.363356 1.4199414 2 10
1.3773422 2.6167922 -0.46836486 1 3
6.8581395 13.024148 1.8073225 2 11
1.8004534 3.4177561 -0.47431552 1 4
6.9893546 13.262091 2.3743625 8 12
2.5201514 4.7819114 -0.47290704 2 5
7.9055958 14.994302 3.2948902 4 13
3.4253078 6.4939294 -0.38477397 2 6
7.2948465 13.8242 3.6086645 10 14
4.8190207 9.1285028 -0.18017864 2 7
6.9910107 13.237229 4.011178 4 15
0.82740641 1.5620388 -0.47363886 12 0
13.305299 25.108158 0.4959974 12 8
0.94837302 1.7889006 -0.46744829 1 1
9.3665171 17.660439 1.0476613 3 9
1.1360476 2.1420023 -0.47129822 1 2
7.5435123 14.217211 1.4080881 2 10
1.3846164 2.6084783 -0.46773914 1 3
7.1251478 13.417393 1.8653324 4 11
1.8011961 3.3904145 -0.47139066 1 4
7.033742 13.234128 2.3737369 4 12
2.5312142 4.7625308 -0.47186115 2 5
7.9191794 14.893807 3.2788618 4 13
3.4554574 6.4960408 -0.38561139 2 6
7.3467112 13.805539 3.6104646 12 14
4.8875079 9.1804647 -0.18153994 2 7
7.0662379 13.267306 4.0277419 4 15
0.8392244 1.5710695 -0.47726235 11 0
8.110178 15.176263 0.30035591 2 8
0.95369333 1.7838604 -0.46699843 1 1
8.1150074 15.172556 0.90174866 3 9
1.134258 2.120712 -0.46748206 1 2
8.3939533 15.687516 1.5566015 2 10
1.3965106 2.6088533 -0.4686777 1 3
6.9451489 12.968951 1.8063475 2 11
1.8205204 3.3981044 -0.47334057 1 4
7.0733662 13.197307 2.3715467 4 12
2.5544128 4.7659583 -0.47308138 2 5
9.1641874 17.091143 3.7696226 2 13
3.483778 6.4944983 -0.38623938 2 6
7.3524723 13.700822 3.5897691 4 14
4.9006042 9.1281118 -0.18084183 2 7
7.3913007 13.761644 4.1856217 6 15
0.83737445 1.5545239 -0.47312123 12 0
8.162159 15.146096 0.30032101 2 8
0.96638745 1.7925283 -0.47014773 1 1
7.3008819 13.542226 0.80628783 2 9
1.147245 2.1271076 -0.46977177 1 2
7.6823263 14.237842 1.4154093 2 10
1.4112382 2.614393 -0.47055492 1 3
6.9837718 12.932405 1.8046414 2 11
1.8342588 3.3952212 -0.47382805 1 4
7.1734309 13.278053 2.3903189 4 12
2.5767162 4.7675295 -0.4741272 2 5
9.9203806 18.347374 4.0543098 3 13
3.51213 6.4928374 -0.3868674 2 6
7.3436732 13.570526 3.5623248 1 14
4.8347225 8.9341841 -0.17731646 2 7
7.1885667 13.278365 4.0458593 1 15
0.84002912 1.546499 -0.47156835 12 0
0.97139639 1.7876011 -0.4696978 1 1
7.3481126 13.516657 0.80628783 2 9
1.1565396 2.1265392 -0.47053501 1 2
8.1300001 14.942487 1.4882714 10 10
1.4104599 2.5923464 -0.46742624 1 3
7.0114379 12.881276 1.8007416 6 11
1.8455069 3.3891203 -0.47382805 1 4
7.1951637 13.207832 2.3821843 2 12
2.6019249 4.7742505 -0.47569603 2 5
9.5358534 17.497261 3.8734229 2 13
3.5384212 6.489924 -0.38739079 2 6
7.3513126 13.477666 3.5443287 1 14
4.9932752 9.1507149 -0.18195879 2 7
7.2154379 13.217581 4.0349894 6 15
0.85257494 1.5572606 -0.47570941 11 0
13.646377 24.915302 0.49585778 12 8
0.97575712 1.7807816 -0.46879801 1 1
7.4010072 13.501434 0.80691588 2 9
1.1654721 2.1261358 -0.47129822 1 2
7.8901839 14.387868 1.4356294 2 10
1.4223503 2.5926034 -0.46836486 1 3
7.0687728 12.879347 1.8039103 2 11
1.8630576 3.3930981 -0.47529048 1 4
7.2621436 13.220727 2.3890674 6 12
2.6043122 4.7411485 -0.47325566 2 5
7.3049722 13.293183 2.9483807 4 13
3.5639386 6.4827843 -0.38770482 2 6
9.0605373 16.474255 4.3406558 2 14
4.8921614 8.8914509 -0.17714193 2 7
7.2755027 13.217701 4.0427537 1 15
0.84866977 1.5373622 -0.47053304 12 0
13.740038 24.879765 0.49610209 12 8
0.9810245 1.7756591 -0.46834809 1 1
7.4422975 13.465028 0.80628783 2 9
1.1785854 2.1323638 -0.47358796 1 2
7.9500041 14.377672 1.4373724 2 10
1.4275662 2.5807087 -0.46711335 1 3
7.1944294 13.000488 1.8243842 2 11
1.8691225 3.3761537 -0.47382805 1 4
7.4039536 13.368103 2.4203544 2 12
2.6517355 4.7878036 -0.47883365 2 5
7.3494244 13.264171 2.9476175 4 13
3.5962307 6.487772 -0.38875154 2 6
7.6739254 13.838447 3.6532054 3 14
5.012414 9.0351954 -0.18035316 2 7
8.1240702 14.63813 4.4858518 1 15
0.86342591 1.5512705 -0.47570941 11 0
13.833606 24.843885 0.49634644 12 8
0.98532057 1.7688189 -0.46744829 1 1
7.5845318 13.609943 0.81654567 2 9
1.1764642 2.1110876 -0.46977177 1 2
8.8238277 15.827282 1.5853629 2 10
1.4384909 2.57916 -0.46773914 1 3
7.4177341 13.294263 1.8692321 2 11
1.8808954 3.3696091 -0.47382805 1 4
7.3099618 13.09037 2.3746755 2 12
2.6723187 4.7854753 -0.4795309 2 5
7.3803573 13.211014 2.9415116 4 13
3.6227515 6.4821539 -0.3891702 2 6
7.6308899 13.648283 3.6100144 7 14
5.0917568 9.103158 -0.18206351 2 7
8.3288803 14.88448 4.5702271 6 15
0.86978072 1.5499321 -0.47622705 11 0
13.918292 24.791956 0.49627662 12 8
0.9962607 1.7738639 -0.4696978 1 1
7.6613398 13.635624 0.81968582 2 9
1.179979 2.1001222 -0.46824533 1 2
8.5070724 15.134654 1.5189503 2 10
1.4610407 2.598228 -0.47211927 1 3
7.4971843 13.327117 1.8775192 2 11
1.8965412 3.3699422 -0.474803 1 4
7.3827505 13.112969 2.3834357 2 12
2.6850984 4.7691731 -0.47883365 2 5
7.3878856 13.11675 2.9262469 8 13
3.6492798 6.4764276 -0.38958889 2 6
7.6153302 13.509519 3.5803208 4 14
5.1087618 9.059206 -0.18153994 2 7
7.3242931 12.982626 3.9940958 1 15
0.87042964 1.5384793 -0.47363886 12 0
14.00079 24.736269 0.49613702 12 8
0.9976452 1.7618968 -0.46744829 1 1
7.6671548 13.540622 0.81549895 2 9
1.1902059 2.1011145 -0.46939012 1 2
14.064712 24.818853 2.4957919 4 10
1.457436 2.5707729 -0.46805197 1 3
7.6504073 13.489074 1.9040867 2 11
1.9096638 3.3670881 -0.47529048 1 4
7.2292838 12.741359 2.3202362 2 12
2.7135305 4.7805638 -0.48092538 2 5
7.4413862 13.104538 2.9292998 8 13
3.6797585 6.4775419 -0.39042628 2 6
7.4704661 13.150389 3.4916902 4 14
5.1269217 9.0213509 -0.18112107 2 7
7.4226809 13.055673 4.0241184 1 15
0.87169969 1.5288713 -0.47156835 12 0
10.30793 18.071735 0.36314967 4 8
1.0054137 1.7619643 -0.46834809 1 1
7.7575455 13.59492 0.82031387 2 9
1.2020341 2.1056809 -0.47129822 1 2
8.8134251 15.432809 1.5548583 2 10
1.4659525 2.5659258 -0.46805197 1 3
7.575911 13.255091 1.8745944 2 11
1.9208199 3.3607366 -0.47529048 1 4
7.7323279 13.523298 2.4672847 2 12
2.719475 4.7542453 -0.47918224 2 5
7.4867549 13.083195 2.930063 6 13
3.7071712 6.4757042 -0.3910543 2 6
7.4917631 13.086647 3.4813426 6 14
5.1190429 8.9383602 -0.17979468 2 7
7.4371266 12.980698 4.0085897 1 15
0.88350135 1.5376977 -0.47519177 11 0
10.166501 17.687248 0.35609892 3 8
1.0073658 1.7518629 -0.4665485 1 1
7.8318472 13.6145 0.82314003 2 9
1.2109678 2.105087 -0.47206149 1 2
8.9321289 15.520926 1.5667117 2 10
1.4774108 2.566186 -0.46899059 1 3
7.5167847 13.050998 1.8492455 2 11
1.930555 3.3505723 -0.474803 1 4
7.3848925 12.811658 2.3421371 2 12
2.7292569 4.7348428 -0.47813639 2 5
7.5457883 13.085508 2.9361689 4 13
3.7286208 6.4633775 -0.3910543 2 6
7.545188 13.07392 3.4849417 4 14
5.1612129 8.9394855 -0.18017864 2 7
7.4475994 12.894441 3.9899545 3 15
0.89079976 1.5379479 -0.47622705 11 0
10.240214 17.672413 0.35651776 3 8
1.0203165 1.7601372 -0.4696978 1 1
7.8793197 13.58708 0.82314003 2 9
1.2153534 2.0957525 -0.47091663 1 2
7.8784719 13.580155 1.3735745 1 10
1.4903263 2.5678468 -0.47024205 1 3
7.6819019 13.230686 1.8784941 2 11
1.9442339 3.3472457 -0.47529048 1 4
7.8295336 13.474108 2.4682233 8 12
2.7437673 4.7218413 -0.47778779 2 5
7.5509634 12.989501 2.9205227 8 13
3.7571852 6.460681 -0.39168233 2 6
7.5760827 13.022235 3.4781933 4 14
5.3965797 9.2722588 -0.18726432 15 7
7.5343657 12.940151 4.0122132 13 15
0.88642222 1.5181459 -0.47105068 12 0
10.260491 17.56576 0.35508665 3 8
1.0284195 1.7599306 -0.47059759 1 1
7.8974724 13.509489 0.82010454 2 9
1.2186987 2.0847173 -0.46939012 1 2
7.9177833 13.53881 1.37218 1 10
1.5022715 2.5677447 -0.47118065 1 3
7.6899381 13.138686 1.8692321 2 11
1.9619253 3.3507164 -0.47675291 1 4
7.7876511 13.295002 2.440378 8 12
2.7590396 4.7083158 -0.47743914 2 5
7.5952706 12.961369 2.920141 8 13
3.7817364 6.4509721 -0.39189169 2 6
7.6165543 12.98731 3.4759436 4 14
5.3945098 9.1947203 -0.18607756 5 7
7.5482016 12.860456 3.9956486 9 15
0.8890397 1.5098929 -0.46949777 13 0
10.375517 17.62117 0.35693663 3 8
1.0315897 1.7512925 -0.46924794 1 1
7.9628286 13.512813 0.82198858 2 9
1.2293221 2.0853107 -0.47053501 1 2
7.9936647 13.554322 1.3767121 1 10
1.5036432 2.5486104 -0.4686777 1 3
7.7135601 13.074151 1.8638699 2 11
1.9736089 3.343848 -0.47675291 1 4
7.7526622 13.129954 2.4150355 4 12
2.7774858 4.7020864 -0.47778779 2 5
7.6367292 12.923305 2.9178512 4 13
3.8094192 6.4439459 -0.39231035 2 6
7.6710572 12.971043 3.4790931 4 14
5.4510055 9.2171421 -0.18691526 2 7
7.5743537 12.80244 3.9858134 10 15
0.90613723 1.5267154 -0.47570941 11 0
10.229716 17.228819 0.34974623 3 8
1.0360109 1.7441491 -0.46834809 1 1
7.8324695 13.18615 0.80377567 2 9
1.2406058 2.0877576 -0.47206149 1 2
7.7884383 13.101606 1.3334829 1 10
1.5145494 2.5467422 -0.46930346 1 3
7.7533112 13.032142 1.86192 2 11
1.9872998 3.3403499 -0.47724038 1 4
7.7671256 13.050193 2.4053366 10 12
2.7999952 4.7026362 -0.47883365 2 5
9.2028856 15.450242 3.4956212 2 13
3.8359776 6.4374733 -0.39272904 2 6
7.6222458 12.791525 3.4377019 13 14
5.3326268 8.9455643 -0.18178427 2 7
7.69519 12.90368 4.0256715 6 15
0.90921175 1.5203865 -0.47467417 11 0
10.510603 17.568897 0.35735551 3 8
1.0427902 1.7423759 -0.46879801 1 1
8.0269308 13.412026 0.81916243 2 9
1.2505474 2.0886855 -0.47320631 1 2
7.8164897 13.050066 1.3308681 1 10
1.522987 2.5417056 -0.46930346 1 3
7.6831937 12.817369 1.834865 4 11
1.9902002 3.3201208 -0.47529048 1 4
7.7666783 12.951515 2.3918834 8 12
2.8278747 4.7138267 -0.48092538 2 5
7.754827 12.921525 2.9292998 2 13
3.8634739 6.4349899 -0.39335707 2 6
7.6927118 12.812957 3.4502993 14 14
5.4611034 9.0924006 -0.18513513 2 7
0.91923386 1.5256363 -0.47726235 11 0
10.682356 17.72234 0.361195 4 8
1.0475558 1.7372397 -0.46834809 1 1
8.1139364 13.450621 0.82324463 2 9
1.2493548 2.0710783 -0.47015342 1 2
7.8669252 13.036016 1.3320884 1 10
1.5354905 2.5434058 -0.47055492 1 3
7.7112913 12.768029 1.8314526 8 11
2.005883 3.3199501 -0.47626543 1 4
7.6841149 12.713003 2.3527746 4 12
2.8352473 4.6907821 -0.4795309 2 5
7.8463974 12.976376 2.9476175 6 13
3.8889258 6.4289794 -0.39377576 2 6
7.7303319 12.774353 3.44715 11 14
5.4855618 9.061307 -0.18489081 2 7
7.7618222 12.816304 4.0148015 1 15
0.91853684 1.5125111 -0.47415653 12 0
10.449286 17.199577 0.35128203 3 8
1.0576617 1.7402339 -0.47014773 1 1
12.294691 20.221216 1.2402576 5 9
1.2555561 2.0650272 -0.46977177 1 2
7.8368025 12.88421 1.3193636 9 10
1.5474404 2.5430925 -0.47149354 1 3
7.795033 12.80547 1.8407148 8 11
2.0215902 3.3197095 -0.47724038 1 4
7.7006941 12.640556 2.3443272 8 12
2.8495297 4.6774535 -0.47918224 2 5
7.6709547 12.586796 2.8651881 4 13
3.9238212 6.4358282 -0.39503184 2 6
8.0488501 13.196493 3.5686235 6 14
5.5202813 9.047225 -0.1849955 17 7
7.7098904 12.630832 3.9651079 1 15
0.92582762 1.5125912 -0.47519177 11 0
10.545804 17.222689 0.35250372 3 8
1.0637302 1.7365311 -0.47014773 1 1
8.1721611 13.335748 0.81968582 2 9
1.2617315 2.0589576 -0.46939012 1 2
7.8629827 12.826203 1.316226 7 10
1.5490785 2.5258884 -0.46930346 1 3
7.8573356 12.806945 1.8448583 10 11
2.0393958 3.3227839 -0.47870281 1 4
7.7664738 12.648952 2.3508976 2 12
2.8616686 4.6606874 -0.47848502 2 5
7.5874314 12.352504 2.8178673 4 13
3.9525385 6.432301 -0.39565986 2 6
8.0438366 13.085311 3.5461285 6 14
5.5245957 8.9836121 -0.18408798 2 7
8.3876133 13.633867 4.2891493 7 15
0.92907304 1.5060622 -0.47415653 12 0
10.653121 17.262346 0.35407442 3 8
1.0718331 1.7361234 -0.47104752 1 1
8.2795238 13.405704 0.82575679 2 9
1.2771626 2.0679045 -0.4724431 1 2
7.9192295 12.817321 1.3181434 1 10
1.5589253 2.5221455 -0.46961632 1 3
7.9353914 12.833473 1.8526579 6 11
2.0468054 3.3088915 -0.47772786 1 4
7.8272142 12.648638 2.3559034 2 12
2.8925991 4.6743884 -0.48092538 2 5
7.6118937 12.2959 2.8109982 6 13
3.9770687 6.4218616 -0.3958692 2 6
8.0915203 13.060465 3.5470283 11 14
5.506402 8.8843899 -0.18244746 20 7
8.3119717 13.405841 4.2265148 10 15
0.93636495 1.5060909 -0.47519177 11 0
10.676353 17.165621 0.35285276 3 8
1.0737685 1.7257532 -0.46924794 1 1
8.2671671 13.281765 0.81989515 2 9
1.2864485 2.066767 -0.47320631 1 2
8.2609138 13.266543 1.3672993 1 10
1.5718969 2.5233955 -0.47086781 1 3
8.2972078 13.314484 1.926267 2 11
2.0562437 3.298357 -0.47724038 1 4
8.1577358 13.080501 2.4416294 2 12
2.90468 4.6575012 -0.48022813 2 5
8.0143356 12.845573 2.943038 4 13
3.9973481 6.4045506 -0.39565986 2 6
8.2258177 13.174298 3.5857198 13 14
5.5945892 8.9566984 -0.18433231 10 7
8.3658867 13.38821 4.2301383 12 15
0.94366837 1.5060871 -0.47622705 11 0
10.706459 17.080814 0.35187542 3 8
1.081857 1.7252963 -0.47014773 1 1
8.3750401 13.350956 0.82596612 2 9
1.2873962 2.052285 -0.47091663 1 2
8.2965727 13.220757 1.3655562 1 10
1.5817466 2.5195656 -0.47118065 1 3
8.1726046 13.013106 1.8867813 2 11
2.0656302 3.2877991 -0.47675291 1 4
7.9699883 12.680655 2.3721726 4 12
2.9315233 4.6642017 -0.48197123 2 5
7.7978768 12.402011 2.8476336 4 13
4.0345626 6.4142294 -0.39712527 2 6
8.3184614 13.219725 3.6059654 10 14
5.6077127 8.9083452 -0.18373895 7 7
8.3827066 13.311527 4.2151275 7 15
0.94246954 1.4931483 -0.47312123 12 0
10.690446 16.930237 0.34950191 3 8
1.0865313 1.7200519 -0.4696978 1 1
8.4011202 13.294413 0.82418674 2 9
1.2983882 2.0546439 -0.4724431 1 2
8.3318558 13.179696 1.3641616 1 10
1.5932602 2.5193155 -0.47211927 1 3
8.1138296 12.824885 1.8633825 2 11
2.0850158 3.2943497 -0.47870281 1 4
8.0109358 12.652488 2.3718596 8 12
2.9341836 4.6342554 -0.4798795 2 5
7.8536716 12.399302 2.8529763 8 13
4.0600891 6.4075623 -0.39754397 2 6
7.0695724 11.152771 3.0485368 3 14
5.6008143 8.8322802 -0.18255216 2 7
0.94560266 1.4865891 -0.47208595 12 0
10.733379 16.867508 0.34897831 3 8
1.1019467 1.7310443 -0.47374693 1 1
8.4936104 13.337445 0.82868761 2 9
1.2992257 2.040163 -0.47015342 1 2
8.0662956 12.661544 1.313437 1 10
1.5999207 2.5104074 -0.47149354 1 3
8.1606722 12.799838 1.8638699 2 11
2.1029081 3.2970929 -0.48016527 1 4
8.0678005 12.644432 2.3756142 4 12
2.9439116 4.6139078 -0.47883365 2 5
8.0648489 12.634942 2.9136534 6 13
4.0974808 6.4169168 -0.39900938 2 6
8.1921463 12.824489 3.5132856 4 14
5.6445265 8.8328991 -0.18297103 12 7
8.6281681 13.496679 4.2922554 15 15
0.95704162 1.4930373 -0.47519177 11 0
8.6678562 13.517152 0.28028566 2 8
1.0964086 1.7091441 -0.46879801 1 1
8.2024832 12.78159 0.79592532 2 9
1.3105811 2.0422242 -0.47167987 1 2
8.1341143 12.6702 1.3172718 11 10
1.6044046 2.4981585 -0.47024205 1 3
8.1559477 12.694448 1.8526579 2 11
2.1079638 3.2797129 -0.47870281 1 4
8.1033459 12.6029 2.3731112 10 12
2.9686205 4.6170096 -0.48022813 2 5
8.0866041 12.572037 2.9056394 6 13
4.117692 6.3992162 -0.39880002 2 6
8.6376791 13.418484 3.6842482 12 14
5.6839881 8.8265915 -0.18325028 2 7
9.0016441 13.973177 4.4537582 4 15
0.96643984 1.4961787 -0.47726235 11 0
8.7540607 13.547273 0.28154221 2 8
1.1044842 1.7085793 -0.4696978 1 1
8.2296944 12.726048 0.79425055 5 9
1.3198336 2.0409343 -0.4724431 1 2
8.1826248 12.648419 1.3179691 9 10
1.6163355 2.4975173 -0.47118065 1 3
8.2131529 12.685899 1.8555828 2 11
2.115082 3.2656705 -0.47772786 1 4
8.2052956 12.664057 2.3900061 4 12
2.9803865 4.5999303 -0.4795309 2 5
8.0129747 12.362514 2.8636615 8 13
4.1443501 6.3915081 -0.39921871 2 6
8.0831633 12.461257 3.4291539 1 14
5.6951685 8.7765036 -0.18262199 17 7
8.1341753 12.53033 4.0028954 4 15
0.96954936 1.4895577 -0.47622705 11 0
11.027267 16.935169 0.35274807 3 8
1.1136321 1.7096124 -0.47104752 1 1
8.3373127 12.794294 0.80032152 2 9
1.3194473 2.0248005 -0.46977177 1 2
8.2289047 12.623116 1.3183178 1 10
1.6228851 2.4885514 -0.47055492 1 3
8.2270184 12.610598 1.8487581 2 11
2.1242995 3.2549424 -0.47724038 1 4
8.4643507 12.964497 2.4522669 2 12
3.0029593 4.5995092 -0.48057678 2 5
7.9734178 12.2079 2.8342772 8 13
4.1710062 6.3836894 -0.3996374 2 6
8.0935574 12.382401 3.4152069 6 14
5.7804904 8.840251 -0.18436721 2 7
8.2148829 12.558443 4.0210128 10 15
0.96414757 1.4700104 -0.47105068 12 0
8.8133211 13.432325 0.28042528 2 8
1.1174541 1.7024567 -0.47014773 1 1
8.3742476 12.753429 0.7995888 2 9
1.3308171 2.0267472 -0.47129822 1 2
8.3177643 12.662593 1.3254646 1 10
1.6391549 2.4944274 -0.472745 1 3
8.2829857 12.600047 1.8514392 2 11
2.1421921 3.2574594 -0.47870281 1 4
8.4444103 12.835856 2.4334948 4 12
3.0277555 4.6023149 -0.48197123 2 5
7.9587831 12.093073 2.8140514 4 13
4.204246 6.3857737 -0.40068412 2 6
8.1688843 12.402899 3.428704 13 14
5.7959137 8.7966404 -0.18387856 10 7
8.2692986 12.545823 4.0261893 13 15
0.97566426 1.476306 -0.47415653 12 0
8.8656721 13.409819 0.2805998 2 8
1.1233895 1.6985459 -0.47014773 1 1
8.4517469 12.778898 0.80293834 2 9
1.3389676 2.0237265 -0.47167987 1 2
8.4520912 12.769715 1.339758 1 10
1.6402177 2.4771616 -0.47055492 1 3
8.3323956 12.579334 1.8526579 2 11
2.1535506 3.2499614 -0.47870281 1 4
8.412735 12.695807 2.4122198 4 12
3.0261879 4.5651484 -0.47918224 2 5
7.7709198 11.718349 2.7331481 3 13
4.2419701 6.3943586 -0.40214953 2 6
8.2185984 12.384048 3.4314034 6 14
5.8460593 8.8090305 -0.18454175 7 7
8.3354349 12.555346 4.038095 10 15
0.97974044 1.4712834 -0.47363886 12 0
8.9555321 13.448588 0.28203088 2 8
1.1246947 1.6883235 -0.46834809 1 1
8.9769993 13.470632 0.84836596 22 9
1.34929 2.023941 -0.47282472 1 2
12.566936 18.843334 1.981573 3 10
1.6451356 2.466778 -0.46961632 1 3
8.3498249 12.515307 1.8472956 2 11
2.1687233 3.2494071 -0.47967777 1 4
8.3527927 12.510295 2.3824971 4 12
3.0575988 4.5777516 -0.48162264 2 5
7.8228197 11.712107 2.7377276 1 13
4.2675886 6.3868999 -0.40256822 2 6
8.4545469 12.648351 3.5123856 11 14
5.8311977 8.720418 -0.18311065 2 7
8.4404335 12.617701 4.0676003 13 15
0.98353845 1.4664218 -0.47312123 12 0
15.880133 23.667826 0.49749827 12 8
1.1316677 1.6860051 -0.46879801 1 1
9.0228548 13.437551 0.84826124 5 9
1.361467 2.0276048 -0.47473282 1 2
8.4899273 12.63912 1.3320884 1 10
1.6603476 2.4708576 -0.47149354 1 3
8.4178286 12.522326 1.8526579 2 11
2.1778364 3.2385228 -0.47919029 1 4
8.3534126 12.417138 2.3702953 2 12
3.0616424 4.5510545 -0.4798795 2 5
7.930522 11.784081 2.7610061 5 13
4.2853937 6.3653383 -0.40214953 2 6
9.171401 13.617658 3.7904251 5 14
5.8504305 8.683424 -0.18276159 2 7
8.5427275 12.674668 4.0955524 6 15
0.99730432 1.4757849 -0.47726235 11 0
9.0940008 13.452005 0.28342709 2 8
1.1408209 1.6868876 -0.47014773 1 1
8.9365234 13.209122 0.83580536 2 9
1.3641354 2.0163357 -0.47320631 1 2
8.5339975 12.609406 1.3320884 1 10
1.6678544 2.4634113 -0.47118065 1 3
8.4214096 12.433699 1.8438834 8 11
2.1891284 3.2309003 -0.47919029 1 4
8.3789701 12.361744 2.3652894 2 12
3.0607409 4.5156021 -0.47726485 2 5
8.0200853 11.827826 2.7777975 5 13
4.3188004 6.3668685 -0.40319625 2 6
7.3193011 10.786207 3.0093951 11 14
5.8425179 8.606698 -0.18157484 2 7
8.4621124 12.460979 4.0360246 12 15
0.99810106 1.4659071 -0.47519177 11 0
8.6714716 12.730992 0.26887178 2 8
1.1477991 1.6845057 -0.47059759 1 1
9.0635757 13.296668 0.84334165 2 9
1.366743 2.0050726 -0.47167987 1 2
8.582449 12.586125 1.3327856 1 10
1.684235 2.468998 -0.47337076 1 3
8.4994507 12.455054 1.8514392 8 11
2.2003939 3.2232387 -0.47919029 1 4
9.4959917 13.904969 2.6668949 4 12
3.0764837 4.5048914 -0.47726485 2 5
7.9217839 11.595501 2.7297137 5 13
4.3455081 6.3583493 -0.40361494 2 6
7.4008932 10.824945 3.0273912 8 14
5.8589802 8.5664425 -0.18115598 2 7
8.5404692 12.482384 4.0525889 10 15
0.99665403 1.4528565 -0.47208595 12 0
8.7418852 12.738565 0.2696746 2 8
1.1558787 1.6837019 -0.47149745 1 1
10.095882 14.700606 0.93461567 3 9
1.3726208 1.9986721 -0.47129822 1 2
8.7617188 12.753149 1.3537029 1 10
1.6850116 2.4517076 -0.47118065 1 3
8.6879473 12.636332 1.8828815 4 11
2.216131 3.2220812 -0.48016527 1 4
9.4392214 13.71876 2.6374853 4 12
3.1249428 4.5417242 -0.48231989 2 5
8.1692457 11.868582 2.8006945 6 13
4.3722062 6.3497224 -0.40403363 2 6
7.4375324 10.797439 3.0269413 13 14
5.9047356 8.5689907 -0.18164465 2 7
8.5883722 12.458859 4.0546594 7 15
1.0105067 1.4620821 -0.47622705 11 0
8.7760658 12.693167 0.26936045 2 8
1.1539886 1.6684378 -0.46834809 1 1
9.1265993 13.195246 0.84082949 2 9
1.3829409 1.9987116 -0.4724431 1 2
8.8209276 12.743783 1.355969 1 10
1.6935589 2.445811 -0.47118065 1 3
8.7998276 12.703835 1.8975059 2 11
2.2341492 3.2241149 -0.48162767 1 4
8.573328 12.372224 2.3840616 4 12
3.1407762 4.5307894 -0.48231989 2 5
8.3829184 12.088439 2.8594639 6 13
4.3988991 6.3409848 -0.40445229 2 6
7.5051732 10.814639 3.0390887 13 14
5.9251313 8.5378656 -0.1814003 2 7
8.6836205 12.508072 4.0800238 9 15
1.0178124 1.4617164 -0.47726235 11 0
8.7826843 12.613124 0.26827839 2 8
1.1639701 1.6709983 -0.47014773 1 1
14.295017 20.514307 1.3103878 6 9
1.3955233 2.0019245 -0.47435117 1 2
8.7297306 12.518443 1.3352259 1 10
1.7061795 2.4466634 -0.47243217 1 3
8.751049 12.544334 1.8780067 2 11
2.2380116 3.2069218 -0.48016527 1 4
8.6107998 12.334128 2.3824971 8 12
3.172545 4.5426664 -0.48476022 2 5
8.2925653 11.873861 2.815196 8 13
4.4313397 6.3427362 -0.40549901 2 6
10.014841 14.329288 4.0360718 5 14
6.1508384 8.7973738 -0.18736903 2 7
8.8058472 12.590079 4.116776 4 15
1.0159987 1.4488432 -0.47415653 12 0
8.7956495 12.538191 0.26733595 2 8
1.1720352 1.6701152 -0.47104752 1 1
14.081945 20.058886 1.2844292 6 9
1.3965145 1.9892513 -0.4724431 1 2
8.7276859 12.427465 1.3286021 1 10
1.7192525 2.4471576 -0.47368363 1 3
8.8655558 12.614404 1.8931185 2 11
2.2491918 3.1990907 -0.48016527 1 4
8.618577 12.253907 2.3727982 12 12
3.1852982 4.528862 -0.4844116 2 5
8.0910749 11.499625 2.7331481 5 13
4.4534516 6.32723 -0.40549901 2 6
9.7540264 13.852872 3.911449 3 14
5.9730816 8.4799414 -0.18105127 2 7
8.8463993 12.554528 4.1152229 1 15
1.0177056 1.4405545 -0.47260359 12 0
8.8809128 12.566198 0.26859254 2 8
1.1756074 1.6628317 -0.47014773 1 1
9.188159 12.991331 0.83392119 2 9
1.4034485 1.9843653 -0.4724431 1 2
8.7514534 12.369271 1.3256389 9 10
1.7266425 2.4395294 -0.47337076 1 3
9.0081768 12.722716 1.91408 2 11
2.264935 3.1976988 -0.4811402 1 4
8.6590176 12.22052 2.3721726 2 12
3.2056963 4.5242171 -0.48510888 2 5
8.0221691 11.317556 2.6965129 7 13
4.4893756 6.3311958 -0.40675509 2 6
10.741519 15.142755 4.2862172 8 14
6.0882759 8.5797243 -0.18363422 2 7
8.8543873 12.473161 4.0986586 1 15
1.0305696 1.4480106 -0.47622705 11 0
8.9397974 12.556301 0.26904631 2 8
1.1836661 1.6618921 -0.47104752 1 1
10.385463 14.576023 0.9379651 3 9
1.4115064 1.9810529 -0.47282472 1 2
8.8142338 12.366231 1.3286021 1 10
1.7340013 2.4318786 -0.4730579 1 3
9.0986462 12.755836 1.9238297 2 11
2.2853069 3.2027009 -0.48309013 1 4
10.06505 14.100271 2.743861 2 12
3.2168381 4.5065141 -0.4844116 2 5
8.1209555 11.372564 2.716357 3 13
4.511447 6.3154874 -0.40675509 2 6
10.506522 14.702452 4.1719422 5 14
6.2484384 8.7406158 -0.18754356 2 7
8.9225988 12.476745 4.1100469 13 15
1.026612 1.4318446 -0.47208595 12 0
9.0931263 12.677765 0.27232736 2 8
1.1826441 1.6482499 -0.46834809 1 1
9.2320461 12.861967 0.82973433 2 9
1.4172677 1.974519 -0.4724431 1 2
8.9177713 12.419547 1.3376663 1 10
1.7378703 2.4193931 -0.47180638 1 3
9.0736113 12.627275 1.9092052 6 11
2.2918375 3.1882572 -0.48211515 1 4
9.7866802 13.609578 2.6550059 2 12
3.2325499 4.4952569 -0.4844116 2 5
8.1491356 11.328211 2.7125409 1 13
4.5427995 6.3126688 -0.40759248 2 6
10.530458 14.627727 4.1611447 9 14
6.2999439 8.747961 -0.18817185 2 7
8.9322176 12.398501 4.0945172 6 15
1.0395223 1.4392145 -0.47570941 11 0
9.1502113 12.663774 0.27271131 2 8
1.1906731 1.6472706 -0.46924794 1 1
9.2534847 12.79729 0.82764089 2 9
1.4287537 1.9759233 -0.47396958 1 2
10.750017 14.861488 1.6047115 2 10
1.7520947 2.421314 -0.47337076 1 3
9.0897007 12.556932 1.9033556 11 11
2.2982962 3.173806 -0.4811402 1 4
9.7344637 13.437759 2.6280994 2 12
3.2622468 4.5033083 -0.48650333 2 5
8.0722771 11.139133 2.6739974 5 13
4.5601163 6.2903056 -0.40717378 2 6
10.59518 14.609812 4.1665435 9 14
6.1272974 8.4458971 -0.18213332 2 7
8.9879208 12.384447 4.1002116 7 15
1.0502224 1.4433877 -0.47829759 11 0
16.844751 23.142326 0.4996275 12 8
1.201004 1.6494061 -0.47104752 1 1
13.493831 18.525021 1.2011102 5 9
1.4321749 1.9661628 -0.47282472 1 2
9.0206852 12.379529 1.3401066 11 10
1.7605368 2.4151828 -0.47337076 1 3
9.1498556 12.547579 1.906768 9 11
2.3116999 3.1689723 -0.48162767 1 4
9.3248529 12.778189 2.5054548 4 12
3.2732501 4.485455 -0.48580611 2 5
8.2523375 11.304338 2.7205548 5 13
4.5938239 6.2904801 -0.4082205 2 6
10.669107 14.604207 4.1755414 5 14
6.1260662 8.3824787 -0.18122579 2 7
9.059597 12.391989 4.1131525 3 15
1.0461184 1.4272478 -0.47415653 12 0
9.1106949 12.425419 0.26894158 2 8
1.2044487 1.6420614 -0.47014773 1 1
10.661042 14.534522 0.94466412 3 9
1.4355447 1.9564035 -0.47167987 1 2
9.0496988 12.328691 1.338015 5 10
1.7712933 2.4122083 -0.47399649 1 3
9.2829103 12.637153 1.925292 2 11
2.3227484 3.1608829 -0.48162767 1 4
9.3063469 12.664425 2.4891856 10 12
3.2912462 4.4772134 -0.48615471 2 5
8.1859016 11.131536 2.6858275 7 13
4.6228566 6.2840576 -0.40884852 2 6
10.783545 14.653204 4.2002859 4 14
6.2391658 8.4780807 -0.18373895 2 7
9.0261984 12.260752 4.0795059 4 15
1.0510937 1.4235877 -0.47415653 12 0
17.00901 23.036783 0.49983692 12 8
1.2145189 1.6443279 -0.47194731 1 1
10.685604 14.461876 0.9423613 3 9
1.4446994 1.9545375 -0.4724431 1 2
9.0867538 12.289018 1.3371434 1 10
1.7745855 2.3999674 -0.472745 1 3
9.318861 12.598323 1.9240733 6 11
2.3332183 3.1531622 -0.48162767 1 4
9.277627 12.533426 2.4697876 8 12
3.3021111 4.4592934 -0.48545748 2 5
8.1304703 10.979688 2.6556797 7 13
4.6508045 6.2783217 -0.40947655 2 6
10.876163 14.676862 4.2173824 4 14
6.4485416 8.698823 -0.18900958 2 7
9.0447798 12.196582 4.0686355 12 15
1.0627249 1.4293959 -0.47726235 11 0
17.091703 22.980484 0.49990672 12 8
1.2132721 1.6306971 -0.46924794 1 1
9.4125328 12.650906 0.82638484 2 9
1.4558613 1.9560361 -0.47396958 1 2
9.3773251 12.594416 1.3737488 3 10
1.7841326 2.3953421 -0.4730579 1 3
9.3758307 12.583224 1.9267545 13 11
2.3513267 3.1545498 -0.48309013 1 4
9.4808693 12.719575 2.5126505 4 12
3.3264096 4.4610958 -0.48685199 2 5
8.3577375 11.204601 2.7171202 1 13
4.6726875 6.2620521 -0.40947655 2 6
7.708818 10.327119 2.9752028 10 14
6.4629998 8.6581583 -0.18859071 2 7
9.0135078 12.070553 4.0365419 15 15
1.0677077 1.4256778 -0.47726235 11 0
6.8973355 9.2098036 0.20084229 2 8
1.2210097 1.6297845 -0.47014773 1 1
9.3919582 12.531667 0.82073259 2 9
1.4650353 1.9540843 -0.47473282 1 2
9.4331875 12.577541 1.3754919 11 10
1.7932509 2.3909934 -0.47337076 1 3
9.3936834 12.520304 1.9218796 9 11
2.3546257 3.1372085 -0.48162767 1 4
9.2761431 12.354668 2.4469483 4 12
3.3467488 4.4558282 -0.48754922 2 5
8.5328007 11.360486 2.7617695 5 13
4.6958284 6.2497149 -0.40968591 2 6
7.7570701 10.320193 2.9806015 2 14
6.5316424 8.6866894 -0.18970767 2 7
9.0660362 12.052913 4.0412006 9 15
1.0726781 1.4219419 -0.47726235 11 0
6.9202027 9.1700983 0.20052816 10 8
1.2304971 1.6299646 -0.47149745 1 1
9.4380426 12.502001 0.82094187 2 9
1.4635658 1.9379911 -0.47206149 1 2
9.4974546 12.57156 1.3784552 1 10
1.804384 2.387557 -0.47399649 1 3
9.3988037 12.431953 1.9135926 9 11
2.3655632 3.1289697 -0.48162767 1 4
9.3597298 12.375778 2.4575858 14 12
3.3526621 4.4314103 -0.48615471 2 5
8.4819641 11.207032 2.7320035 7 13
4.7307611 6.2483845 -0.41073263 2 6
7.7706995 10.263532 2.9720533 4 14
6.5619187 8.6638412 -0.18970767 2 7
9.0625572 11.961138 4.0210128 12 15
1.0680389 1.4060702 -0.47312123 12 0
6.9275842 9.1168499 0.19986497 2 8
1.2347165 1.6243234 -0.47104752 1 1
9.4818687 12.473811 0.8211512 2 9
1.4723607 1.9362528 -0.47282472 1 2
9.4449949 12.416315 1.3648589 1 10
1.8206656 2.3925636 -0.47618657 1 3
9.3101168 12.230133 1.8872689 4 11
2.3783302 3.1242676 -0.48211515 1 4
9.3971186 12.339964 2.4566472 14 12
3.3745842 4.4297762 -0.48720059 2 5
8.5143185 11.172599 2.7304769 9 13
4.7575111 6.2406025 -0.41125599 2 6
7.7893357 10.217558 2.9662046 9 14
6.4451003 8.4512234 -0.18551907 2 7
9.058814 11.874192 4.0018601 19 15
1.0726962 1.4025204 -0.47312123 12 0
6.9346943 9.0636501 0.19920176 2 8
1.2400959 1.6202201 -0.47104752 1 1
6.9937606 9.1342335 0.60291028 14 9
1.4811609 1.934477 -0.47358796 1 2
9.5612335 12.48299 1.3756661 1 10
1.8153733 2.3692651 -0.472745 1 3
9.2636766 12.085753 1.8697196 6 11
2.3964684 3.1253986 -0.48357758 1 4
9.3499689 12.18953 2.433182 6 12
3.3844039 4.4122386 -0.48650333 2 5
8.4999342 11.077326 2.7140675 9 13
4.7964177 6.2485595 -0.41282606 2 6
7.777473 10.128486 2.9482086 9 14
6.6036901 8.5967712 -0.189219 2 7
9.1202164 11.868542 4.0106602 6 15
1.0811214 1.4033594 -0.47467417 11 0
6.9565268 9.0267153 0.19892253 10 8
1.2493138 1.6205113 -0.47239724 1 1
6.9951034 9.0702305 0.60029346 14 9
1.4843063 1.924632 -0.4724431 1 2
9.7848711 12.683004 1.4014642 2 10
1.8296677 2.3707323 -0.47430936 1 3
9.2475691 11.977927 1.8580201 4 11
2.4049373 3.1138716 -0.48309013 1 4
9.3526106 12.105231 2.4228573 2 12
3.4168401 4.4224701 -0.4889437 2 5
8.5685616 11.086425 2.7236078 7 13
4.8157587 6.2286172 -0.41261673 2 6
7.8151684 10.104357 2.9491084 9 14
6.6361036 8.5768318 -0.18928881 2 7
9.2455463 11.945099 4.0474124 7 15
1.0931196 1.4087342 -0.47777998 11 0
6.9720559 8.9818392 0.19846877 2 8
1.2394249 1.5961313 -0.4665485 1 1
7.0009942 9.0126324 0.59809536 14 9
1.4994465 1.9302917 -0.47511441 1 2
7.0833001 9.1152945 1.0099607 14 10
1.8342944 2.359653 -0.47337076 1 3
9.3392906 12.00982 1.8680135 2 11
2.4182305 3.1085908 -0.48357758 1 4
9.3644762 12.033539 2.4150355 8 12
3.4273612 4.4042277 -0.48824647 2 5
8.6482096 11.109121 2.7365828 5 13
4.8399272 6.2149196 -0.41282606 2 6
10.488743 13.463693 3.9402428 3 14
6.677062 8.567812 -0.18960294 2 7
9.3216352 11.956935 4.0624242 10 15
1.0932715 1.3988216 -0.47570941 11 0
6.9848847 8.9338236 0.19794521 2 8
1.2521926 1.6010047 -0.46924794 1 1
7.0213332 8.9739847 0.59715331 19 9
1.501336 1.9188614 -0.47358796 1 2
7.0782332 9.0434475 1.0047314 19 10
1.8510453 2.3641226 -0.47556084 1 3
9.8475237 12.572563 1.9608778 2 11
2.4241693 3.0938814 -0.48260266 1 4
9.9413958 12.683291 2.5523849 6 12
3.4402566 4.3891001 -0.48789781 2 5
8.6275797 11.00316 2.7178833 9 13
4.8640556 6.2011309 -0.41303539 2 6
10.391321 13.243023 3.8862545 3 14
6.6760635 8.505125 -0.18873031 2 7
9.3561544 11.915207 4.0593181 18 15
1.0909784 1.3858888 -0.47260359 12 0
7.0061316 8.8968153 0.19766594 10 8
1.263803 1.6042784 -0.47149745 1 1
7.0362248 8.9318228 0.59589726 17 9
1.5043799 1.9089826 -0.4724431 1 2
7.0678172 8.9654875 0.99880481 21 10
1.8592857 2.3576472 -0.47556084 1 3
7.155704 9.0704575 1.4185592 6 11
2.4398723 3.0916338 -0.48357758 1 4
9.8340988 12.461076 2.514215 4 12
3.4555557 4.3770652 -0.48789781 2 5
8.6269951 10.923676 2.7056715 9 13
4.8930993 6.1935191 -0.41366345 2 6
10.680362 13.513976 3.9766848 15 14
6.6905947 8.4656811 -0.18834637 2 7
9.3884249 11.875025 4.0562124 6 15
1.0958098 1.382072 -0.47260359 12 0
7.0219331 8.8562965 0.19728202 2 8
1.2727486 1.6046592 -0.4728471 1 1
7.0574312 8.8946886 0.59505987 14 9
1.5134758 1.9067948 -0.47320631 1 2
7.0866785 8.9251595 0.99706167 24 10
1.8609515 2.3437338 -0.47399649 1 3
7.1598182 9.0140343 1.4134407 11 11
2.4525819 3.0866334 -0.48406506 1 4
9.8750763 12.423582 2.5135894 8 12
3.4732947 4.3680944 -0.48824647 2 5
8.7450418 10.997963 2.7312403 7 13
4.9260459 6.1928883 -0.41471016 2 6
10.785778 13.554738 3.9991801 5 14
6.7350473 8.461051 -0.18876524 2 7
9.3804836 11.780218 4.0349894 7 15
1.1052077 1.38447 -0.47467417 11 0
7.0440674 8.8207951 0.19703768 2 8
1.2710447 1.5910711 -0.47014773 1 1
7.0884342 8.8700018 0.59505987 17 9
1.5332724 1.9186364 -0.47740412 1 2
7.1087742 8.892271 0.99601579 24 10
1.8654206 2.3325949 -0.4730579 1 3
7.1589956 8.9486856 1.4071035 16 11
2.4658213 3.0811539 -0.48455253 1 4
7.2455826 9.0504408 1.836228 3 12
3.4977212 4.3689957 -0.48964092 2 5
8.7539215 10.930594 2.7220812 5 13
4.9576221 6.1881266 -0.41554755 2 6
10.563697 13.18094 3.8997514 7 14
6.8058167 8.4889765 -0.1899171 2 7
9.4070396 11.72932 4.0287776 15 15
1.1100334 1.3806038 -0.47467417 11 0
7.0898561 8.8148489 0.19745652 22 8
1.2717047 1.580551 -0.46834809 1 1
7.1055756 8.8280907 0.59390849 23 9
1.533805 1.9056258 -0.47549605 1 2
7.1347752 8.8611927 0.99531853 29 10
1.8772696 2.3306839 -0.47399649 1 3
7.166522 8.8942728 1.4024725 21 11
2.4665964 3.0601633 -0.48260266 1 4
7.2238154 8.9589672 1.8227745 12 12
3.5079494 4.3505549 -0.4889437 2 5
10.812227 13.404537 3.3475533 4 13
4.9766855 6.1676736 -0.41533819 2 6
10.61699 13.153082 3.902451 9 14
6.8354053 8.4651699 -0.1899171 2 7
9.46978 11.723459 4.038095 7 15
1.1124146 1.3737177 -0.47363886 12 0
7.1029544 8.7682981 0.19696786 15 8
1.2808945 1.5806447 -0.4696978 1 1
7.1288042 8.7939215 0.59328043 25 9
1.5330302 1.8911092 -0.47320631 1 2
7.1593828 8.8285017 0.99444705 26 10
1.8903711 2.3302534 -0.47524795 1 3
7.1850195 8.8537884 1.4000351 21 11
2.4872718 3.0638642 -0.48455253 1 4
7.2264004 8.8984308 1.8155787 15 12
3.5256255 4.3413777 -0.48929232 2 5
7.2640615 8.9416161 2.2393346 3 13
5.0183401 6.1750622 -0.41701293 2 6
10.650544 13.100822 3.8979518 15 14
6.8649149 8.4412565 -0.1899171 2 7
6.6809831 8.2121534 2.836657 19 15
1.1147606 1.3668324 -0.47260359 12 0
7.138577 8.7496462 0.19710748 17 8
1.2925656 1.5837123 -0.47194731 1 1
7.1581922 8.7674389 0.59317577 21 9
1.5408633 1.8872676 -0.47358796 1 2
7.172514 8.7818508 0.99200666 27 10
1.9047434 2.3312888 -0.4768123 1 3
7.2209034 8.8348026 1.40101 24 11
2.4954376 3.0520904 -0.48406506 1 4
7.2299061 8.83951 1.8086954 22 12
3.5458047 4.3352122 -0.48998958 2 5
7.2579303 8.8706226 2.227886 10 13
5.0474505 6.1667838 -0.41764098 2 6
10.628311 12.980633 3.8732071 14 14
6.9108133 8.4373512 -0.19037086 4 7
6.69491 8.1708555 2.8304453 48 15
1.1244303 1.3689038 -0.47467417 11 0
7.167809 8.7231283 0.19707258 22 8
1.29561 1.5761808 -0.47104752 1 1
7.185957 8.7421122 0.5930711 25 9
1.5474422 1.8818772 -0.47358796 1 2
7.2031269 8.7567596 0.99200666 32 10
1.9091026 2.320051 -0.47587368 1 3
7.2466559 8.8034115 1.4000351 24 11
2.5080693 3.0468628 -0.48455253 1 4
7.2478766 8.8017645 1.8058797 28 12
3.5583794 4.3197351 -0.48964092 2 5
7.2426577 8.7891722 2.2137661 15 13
5.0752997 6.1568317 -0.41816431 2 6
10.681212 12.957349 3.8768065 14 14
6.9387493 8.4143934 -0.19037086 2 7
6.7158241 8.1411562 2.827857 58 15
1.1289632 1.3651677 -0.47467417 11 0
7.1915998 8.6931458 0.19693296 17 8
1.30083 1.5718753 -0.47104752 1 1
7.2238231 8.729003 0.59380382 29 9
1.5536739 1.8767357 -0.47358796 1 2
7.2448359 8.748168 0.99374974 32 10
1.9067045 2.3015375 -0.47337076 1 3
7.2669401 8.7686348 1.398329 27 11
2.5232255 3.0446434 -0.48552752 1 4
7.2719831 8.771596 1.8046281 28 12
3.5726857 4.3079109 -0.48964092 2 5
7.2567201 8.7469769 2.2091868 24 13
5.104619 6.1507249 -0.41889706 2 6
7.0353346 8.477108 2.5432966 4 14
6.983222 8.4113369 -0.19082463 2 7
6.7329082 8.1069527 2.8237159 76 15
1.1384288 1.3673546 -0.47674471 11 0
7.2293401 8.6800108 0.19717729 2 8
1.3047878 1.566056 -0.47059759 1 1
7.2542515 8.7037325 0.59380382 23 9
1.5624032 1.8745888 -0.47435117 1 2
7.2776322 8.7286873 0.99427271 26 10
1.9257132 2.3088553 -0.47618657 1 3
7.2947083 8.7429619 1.3980851 29 11
2.5236623 3.0236244 -0.48357758 1 4
7.2962222 8.7385817 1.8030639 29 12
3.5920589 4.3021579 -0.49033821 2 5
7.2642927 8.6972466 2.2026992 24 13
5.1275473 6.1368294 -0.41910636 2 6
7.0136366 8.3912001 2.5248506 21 14
7.0535889 8.435998 -0.19194156 2 7
6.7512522 8.0715437 2.8195746 55 15
1.1431946 1.3633727 -0.47674471 11 0
7.2698779 8.666976 0.19745652 2 8
1.3052362 1.5555203 -0.46879801 1 1
7.2897234 8.6844778 0.59422249 10 9
1.5664124 1.8661165 -0.47358796 1 2
7.3195858 8.7169647 0.9958415 26 10
1.9312202 2.2990935 -0.47556084 1 3
7.3277349 8.7204866 1.3985727 29 11
2.5393102 3.0208755 -0.48455253 1 4
7.3279543 8.71457 1.8033768 29 12
3.6096199 4.2926416 -0.4906868 2 5
7.2819724 8.6568108 2.1988828 31 13
5.1592236 6.1311202 -0.41994375 2 6
7.0265718 8.3472824 2.519002 41 14
7.090723 8.4205008 -0.192151 2 7
6.7880974 8.0582733 2.8231983 39 15
1.1479464 1.3593742 -0.47674471 11 0
7.312994 8.6568213 0.19780558 2 8
1.3207204 1.5628626 -0.47239724 1 1
7.3367538 8.6788092 0.5955832 19 9
1.5703815 1.8576392 -0.47282472 1 2
7.3499713 8.6913586 0.9958415 32 10
1.9456124 2.2998796 -0.4771252 1 3
7.3735175 8.7130404 1.4014976 24 11
2.5498405 3.0119925 -0.48455253 1 4
7.3532205 8.6829081 1.8021252 31 12
