# .PCD v0.7 - Point Cloud Data file format
VERSION 0.7
FIELDS x y z intensity ring time
SIZE 4 4 4 4 2 4
TYPE F F F F U F
COUNT 1 1 1 1 1 1
WIDTH 953
HEIGHT 1
VIEWPOINT 0 0 0 1 0 0 0
POINTS 953
DATA ascii
-0.82837105 -11.147076 -1.4227904 2 4 0.095724553
0.74824482 -31.75065 0.18458639 12 21 0.095724553
-0.31368315 -12.392323 -1.3352861 6 5 0.095726855
-1.2635914 -10.217403 -0.96104169 7 6 0.095729157
-0.53024083 -20.947618 0.48759544 12 24 0.095729157
-1.2783262 -10.336549 0.12125353 2 22 0.09573146
-0.40368536 -15.947937 -1.1155455 7 8 0.09573146
-0.88960361 -11.97106 -0.97995377 81 7 0.095733769
-1.2961086 -17.441244 0.3052775 100 23 0.095736071
0.41032284 -17.411436 -1.1161871 6 9 0.095736071
-1.2365513 -9.9987574 -0.586739 54 10 0.095738374
-1.2964165 -17.445387 0.71270317 100 26 0.095740676
-0.42930779 -16.960173 -0.79028463 28 12 0.095740676
-0.89104372 -11.990438 -0.63012499 38 11 0.095742986
-0.47429019 -18.73724 2.3013809 7 29 0.095742986
-1.2979171 -17.46558 1.4297366 30 28 0.095745288
0.58511561 -24.828506 -1.0118202 12 13 0.095745288
-1.244761 -10.065142 -0.3541601 40 14 0.09574759
-0.54682457 -21.602774 5.7902999 40 31 0.09574759
-1.0495636 -14.123581 2.5821941 86 30 0.095749892
-0.43249032 -17.085901 -0.39770666 27 16 0.095749892
0.62788671 -31.552948 -0.55086774 5 17 0.095850468
-1.352193 -17.335983 -0.50605893 69 15 0.09585277
-0.023320979 -0.80471289 -0.22536501 1 1 0.09585277
-0.59141749 -7.5823526 -1.5210859 12 2 0.095855072
-0.60543823 -20.89123 0 39 20 0.095855072
-1.2959837 -10.173087 -0.11939096 42 18 0.095857382
-0.8679862 -11.128141 -1.4207702 2 4 0.095859684
0.5674904 -28.517876 0.16577904 5 21 0.095859684
-1.3527427 -17.343031 -0.10110405 58 19 0.095861986
-0.35875428 -12.379163 -1.3340009 5 5 0.095861986
-1.489768 -11.694237 -1.1004578 49 6 0.095864289
-0.60654861 -20.929544 0.48722321 31 24 0.095864289
-1.3162019 -10.331794 0.12125353 2 22 0.095866598
-0.46155521 -15.926408 -1.1141504 19 8 0.095866598
-0.93006235 -11.923997 -0.97637379 48 7 0.0958689
0.56137317 -28.210468 0.82116759 18 25 0.0958689
-1.3538036 -17.356632 0.30388129 24 23 0.095871203
0.34642637 -17.408831 -1.1159312 7 9 0.095871203
-1.2767217 -10.021886 -0.58836699 25 10 0.095873505
-0.60591793 -20.907784 1.2181289 60 27 0.095873505
-0.4916968 -16.966473 -0.79065686 43 12 0.095875815
-0.93218809 -11.95125 -0.62824088 42 11 0.095878117
-0.53180456 -18.35043 2.2540956 7 29 0.095878117
0.49419278 -24.834478 -1.011983 9 13 0.095880419
-1.2846733 -10.084305 -0.35499769 38 14 0.095882721
-1.1019326 -14.127484 2.5836291 100 30 0.095885031
-0.4951086 -17.0842 -0.39770666 26 16 0.095885031
0.4626933 -28.199909 -0.4922975 12 17 0.095905766
-1.4094508 -17.291307 -0.50489533 20 15 0.095908068
-0.026004808 -0.8007766 -0.22428671 1 1 0.095908068
-0.61820006 -7.5841503 -1.5218703 15 2 0.09591037
-0.67771 -20.868999 0 35 20 0.09591037
-1.3320061 -10.172467 -0.11943752 45 18 0.095912673
-0.30673242 -9.4453363 -1.4702493 5 3 0.095912673
-0.90682566 -11.125043 -1.4207702 2 4 0.095914982
0.4625591 -28.19173 0.16387273 9 21 0.095914982
-0.4019638 -12.377835 -1.3340009 10 5 0.095917284
-1.3495991 -10.306825 -0.97033614 5 6 0.095919587
-0.67804581 -20.879339 0.4861066 29 24 0.095919587
-1.3522588 -10.327137 0.12125353 6 22 0.095921889
-0.50976413 -15.697374 -1.0982459 9 8 0.095921889
-0.97070777 -11.908756 -0.97539741 54 7 0.095924199
0.46178076 -28.144293 0.81918949 7 25 0.095924199
0.2848697 -17.36204 -1.1128613 7 9 0.095926501
-0.67941505 -20.921503 1.219059 27 27 0.095928803
-1.4199187 -17.419727 0.71205181 13 26 0.095931105
-0.5507887 -16.960659 -0.79047072 30 12 0.095931105
-0.97195309 -11.924034 -0.62698483 46 11 0.095933415
-0.58361495 -17.971493 2.2077851 7 29 0.095933415
-1.4225386 -17.45187 1.4294112 13 28 0.095935717
0.40782824 -24.856031 -1.0127972 9 13 0.095935717
-1.3276517 -10.139214 -0.35709167 30 14 0.095938019
-0.64909977 -19.987991 5.3585896 3 31 0.095938019
-1.1518798 -14.131396 2.5850639 100 30 0.095940322
-0.5552603 -17.098356 -0.39807889 30 16 0.095940322
0.36907086 -28.193291 -0.49215785 12 17 0.095961057
-0.028246801 -0.78913778 -0.22105181 1 1 0.095963366
-0.64168882 -7.5625181 -1.5179479 14 2 0.095965669
-0.74218929 -20.734722 0 9 20 0.095965669
-1.3662648 -10.17196 -0.11948409 39 18 0.095967971
-0.3387599 -9.4640179 -1.4733239 5 3 0.095967971
-0.94203562 -11.102206 -1.4182447 2 4 0.095970273
0.36901614 -28.189112 0.16384949 9 21 0.095970273
-0.44258168 -12.364511 -1.3327157 9 5 0.095972583
-1.3805896 -10.278609 -0.96810549 8 6 0.095974885
-0.74284667 -20.753088 0.48322198 5 24 0.095974885
-1.38916 -10.342417 0.12148636 4 22 0.095977187
-0.54854167 -15.324742 -1.0722965 27 8 0.095977187
-1.0081714 -11.881639 -0.97344464 46 7 0.095979489
0.36813346 -28.121683 0.81849128 7 25 0.095979489
-1.4847646 -17.498449 0.30653408 28 23 0.095981799
0.22682267 -17.326965 -1.1105587 7 9 0.095981799
-1.3613882 -10.135653 -0.59557617 7 10 0.095984101
-0.7366485 -20.579927 1.1992918 8 27 0.095984101
-1.4786911 -17.42687 0.71254033 19 26 0.095986404
-0.60745859 -16.970718 -0.7910291 31 12 0.095986404
-1.0098011 -11.900846 -0.62593812 41 11 0.095988706
-1.4814152 -17.458975 1.4303875 12 28 0.095991008
0.32550427 -24.865242 -1.0131229 9 13 0.095991008
-1.3681858 -10.186261 -0.35890642 38 14 0.095993318
-0.7001763 -19.560995 5.2447095 3 31 0.095993318
-1.2007316 -14.151026 2.5893688 93 30 0.09599562
-0.61253017 -17.112406 -0.39845106 37 16 0.09599562
0.26954126 -28.07843 -0.4901334 8 17 0.096016355
-1.0681721 -12.087757 -0.35315907 9 15 0.096018657
-0.031152477 -0.79288322 -0.2221301 1 1 0.096018657
-0.66773802 -7.556325 -1.5171635 15 2 0.096020967
-0.80027241 -20.368284 0 6 20 0.096020967
-1.4094113 -10.222599 -0.12013599 21 18 0.096023269
-0.3714833 -9.4548779 -1.4720941 4 3 0.096023269
-0.98008567 -11.090944 -1.4172347 2 4 0.096025571
0.27046087 -28.174227 0.16375649 14 21 0.096025571
-1.0781128 -12.200251 -0.071184322 12 19 0.096027873
-0.48511493 -12.346995 -1.3310022 9 5 0.096027873
-1.4153726 -10.265837 -0.96736199 7 6 0.096030183
-0.80178273 -20.406727 0.47521946 4 24 0.096030183
-1.8885019 -13.69749 0.16097291 5 22 0.096032485
-0.59043944 -15.027682 -1.0516486 26 8 0.096032485
-1.0482365 -11.862161 -0.97214282 44 7 0.096034788
0.26946822 -28.07082 0.81697857 7 25 0.096034788
-1.4666264 -16.596786 0.29082692 15 23 0.09603709
0.16587843 -17.279751 -1.1074888 6 9 0.09603709
-1.3989416 -10.146661 -0.59650636 7 10 0.096039392
-0.79343164 -20.194178 1.1769664 8 27 0.096039392
-1.5402174 -17.429565 0.71286595 9 26 0.096041702
-0.6668511 -16.972488 -0.7912153 25 12 0.096041702
-1.0492274 -11.873373 -0.62468207 37 11 0.096044004
-0.68971932 -17.554523 2.1570876 36 29 0.096044004
-1.541999 -17.449726 1.4300621 10 28 0.096046306
0.23878217 -24.874218 -1.0134486 9 13 0.096046306
-1.3960905 -10.125981 -0.35695207 48 14 0.096048608
-0.75252587 -19.153055 5.1360054 3 31 0.096048608
-0.67194641 -17.102173 -0.39826497 20 16 0.096050918
0.17123707 -28.03121 -0.48929566 3 17 0.096071653
-1.111822 -12.099881 -0.35362452 4 15 0.096073955
-0.034084558 -0.7966181 -0.22320841 1 1 0.096073955
-0.69446862 -7.5578537 -1.5179479 15 2 0.096076258
-0.85785609 -20.049656 0 9 20 0.096076258
-1.4506865 -10.25722 -0.12060163 14 18 0.096078567
-0.40499073 -9.4653702 -1.4739387 5 3 0.096078567
-1.0180671 -11.079554 -1.4162245 2 4 0.096080869
0.16862135 -27.603022 0.16043209 9 21 0.096080869
-1.1170319 -12.156581 -0.070951849 67 19 0.096083172
-0.52718991 -12.321386 -1.3284318 11 5 0.096083172
-1.4551016 -10.288438 -0.96996439 5 6 0.096085474
-0.8571111 -20.032246 0.46656558 3 24 0.096085474
-1.9391029 -13.710616 0.16120572 13 22 0.096087776
-0.63436222 -14.826199 -1.0376973 7 8 0.096087776
-1.0885414 -11.846519 -0.97116643 44 7 0.096090086
0.16867493 -27.611794 0.80359691 7 25 0.096090086
-1.5022265 -16.348627 0.28656849 16 23 0.096092388
0.10546391 -17.264259 -1.1064656 10 9 0.096092388
-1.4377059 -10.16544 -0.5979017 5 10 0.09609469
-0.84684575 -19.792326 1.1537108 7 27 0.09609469
-1.0895691 -11.857705 -0.62405401 35 11 0.096099302
-1.6032636 -17.448206 1.4303875 10 28 0.096101604
0.15200464 -24.882896 -1.0137743 12 13 0.096101604
-1.4319872 -10.125005 -0.35709167 84 14 0.096103907
-0.050614107 -0.53049999 -0.24849954 3 0 0.096126951
0.065346733 -24.960115 -0.43568188 9 17 0.096126951
-1.5421538 -16.163727 -0.47254667 5 15 0.096129254
-0.036330808 -0.78495085 -0.2199735 1 1 0.096129254
-0.72084641 -7.5553842 -1.5179479 16 2 0.096131556
-0.91119319 -19.686926 0 3 20 0.096131556
-1.4945174 -10.30751 -0.12125353 5 18 0.096133858
-0.43802881 -9.4638996 -1.4739387 7 3 0.096133858
-1.0548517 -11.056182 -1.413699 4 4 0.09613616
0.064528294 -24.647501 0.14325206 3 21 0.09613616
-1.1594599 -12.152609 -0.070951849 22 19 0.09613847
-0.56927729 -12.299608 -1.32629 12 5 0.09613847
-1.6778824 -11.572157 -1.0915352 46 6 0.096140772
-0.91353506 -19.737522 0.45977274 3 24 0.096140772
-1.8348589 -12.654805 0.14886619 2 22 0.096143074
-0.67965478 -14.684386 -1.0279315 7 8 0.096143074
-1.1283726 -11.826775 -0.96986461 43 7 0.096145377
0.064470671 -24.62549 0.71667445 6 25 0.096145377
-1.5364941 -16.104406 0.28237993 17 23 0.096147686
0.045032103 -17.200653 -1.1023722 4 9 0.096147686
-1.4737545 -10.164311 -0.59813428 2 10 0.096149988
-0.90060526 -19.458166 1.1344087 9 27 0.096149988
-1.5354545 -16.09351 0.65864384 2 26 0.096152291
-0.83427882 -18.025139 -0.84053826 11 12 0.096152291
-1.1301951 -11.845878 -0.62363529 31 11 0.096154593
-0.77223802 -16.684708 2.0508175 4 29 0.096154593
-1.6656748 -17.458382 1.4316894 11 28 0.096156903
0.064549141 -24.655464 -1.0044929 6 13 0.096156903
-1.4615855 -10.080383 -0.35569566 65 14 0.096159205
-0.85299218 -18.429453 4.9434438 9 31 0.096159205
-1.453501 -15.234531 2.790262 1 30 0.096161507
-0.9046604 -19.54578 -0.45530617 3 16 0.096161507
-0.049967244 -0.50506675 -0.23666623 3 0 0.096182242
-0.021467395 -24.600246 -0.42939901 9 17 0.096182242
-1.5741613 -15.911553 -0.46533218 6 15 0.096184544
-0.040794309 -0.81944364 -0.22967821 1 1 0.096184544
-0.74682939 -7.5489187 -1.5171635 16 2 0.096186854
-1.5416557 -10.3774 -0.12213825 1 18 0.096189156
-0.47086519 -9.4583654 -1.4733239 12 3 0.096189156
-1.092267 -11.040587 -1.4121839 8 4 0.096191458
-0.611417 -12.281658 -1.3245765 13 5 0.096193761
-1.7089028 -11.503198 -1.0855868 48 6 0.09619607
-0.96333921 -19.350792 0.45083967 4 24 0.09619607
-1.8608012 -12.525677 0.14742269 1 22 0.096198373
-0.67912656 -13.641754 -0.9551056 6 8 0.096198373
-1.1692567 -11.818795 -0.96953911 41 7 0.096200675
-1.5714381 -15.884027 0.27861023 14 23 0.096202977
-0.014964904 -17.148813 -1.0990463 6 9 0.096202977
-0.95065272 -19.095957 1.1134785 9 27 0.096205287
-0.67786211 -13.616356 -0.63505679 20 12 0.096207589
-1.1699655 -11.82596 -0.62279797 39 11 0.096209891
-0.81843281 -16.440027 2.0210814 6 29 0.096209891
-1.7281764 -17.46833 1.4329913 12 28 0.096212193
-0.021351723 -24.467693 -0.99684 9 13 0.096212193
-1.4944142 -10.059402 -0.35513729 76 14 0.096214503
-0.91635805 -18.407072 4.9382677 24 31 0.096214503
-0.95638013 -19.211004 -0.44758284 3 16 0.096216805
-0.054316398 -0.53013366 -0.24849954 3 0 0.09623754
-0.10691706 -24.504034 -0.42772359 6 17 0.09623754
-1.6036102 -15.651402 -0.457885 9 15 0.096239842
-0.042219721 -0.79237103 -0.2221301 1 1 0.096239842
-0.77317476 -7.5462656 -1.5171635 16 2 0.096242145
-1.0083847 -18.925156 0 5 20 0.096242145
-1.9460185 -12.791947 -0.15063563 1 18 0.096244454
-0.50408751 -9.4606104 -1.4739387 5 3 0.096244454
-1.1303937 -11.03276 -1.4116788 3 4 0.096246757
-0.10701881 -24.527353 0.14255464 78 21 0.096246757
-0.65343654 -12.263562 -1.3228629 13 5 0.096249059
-1.7478471 -11.489289 -1.0848433 44 6 0.096251361
-1.0091755 -18.939999 0.44134828 3 24 0.096251361
-1.8804494 -12.360936 0.14556012 1 22 0.096253671
-0.7110287 -13.34444 -0.93445772 9 8 0.096253671
-1.2080656 -11.790845 -0.96758634 40 7 0.096255973
-0.10713232 -24.55337 0.71457988 100 25 0.096255973
-0.074597321 -17.096762 -1.0957206 6 9 0.096258275
-1.5320655 -10.070871 -0.59325063 67 10 0.096260577
-1.0005172 -18.777502 1.0951066 7 27 0.096260577
-1.7870859 -17.442144 0.71433139 20 26 0.096262887
-0.71433151 -13.406426 -0.62537831 15 12 0.096262887
-1.2092018 -11.801934 -0.62175119 42 11 0.096265189
-0.85637826 -16.07233 1.9762335 5 29 0.096265189
-0.10694934 -24.511433 -0.99863112 9 13 0.096267492
-1.5313216 -10.065982 -0.35555607 30 14 0.096269794
-0.98019212 -18.396044 4.9361968 16 31 0.096269794
-1.4507256 -14.159231 2.5951087 75 30 0.096272096
-0.73023206 -13.704844 -0.31935638 6 16 0.096272096
-0.051496685 -0.48668933 -0.22821388 3 0 0.096292838
-0.18833227 -24.523544 -0.42807263 6 17 0.096292838
-1.6285802 -15.391527 -0.45043784 10 15 0.096295141
-0.046588853 -0.82299274 -0.23075652 1 1 0.096295141
-0.79860872 -7.5475602 -1.5179479 16 2 0.096297443
-1.0535065 -18.610207 0 8 20 0.096297443
-1.9742925 -12.694523 -0.14956464 2 18 0.096299745
-0.5359056 -9.4667788 -1.4751686 4 3 0.096299745
-1.1648877 -11.009221 -1.4091535 2 4 0.096302055
-0.18848063 -24.542862 0.14264762 45 21 0.096302055
-0.69320333 -12.245445 -1.3211492 16 5 0.096304357
-1.7841032 -11.471622 -1.083728 42 6 0.096306659
-1.0552554 -18.641102 0.4344624 3 24 0.096306659
-1.8999184 -12.216304 0.14393036 2 22 0.096308962
-0.73926651 -13.059153 -0.91464686 11 8 0.096308962
-1.2454827 -11.770916 -0.96628451 45 7 0.096311271
-0.18834263 -24.524893 0.71376538 100 25 0.096311271
-0.1308654 -17.040537 -1.092139 6 9 0.096313573
-1.5746602 -10.124923 -0.59673899 71 10 0.096315876
-1.0454051 -18.467096 1.0771999 15 27 0.096315876
-1.6127799 -15.2422 0.62444979 10 26 0.096318178
-0.74681807 -13.192551 -0.61551374 13 12 0.096318178
-1.2466524 -11.78197 -0.62091386 46 11 0.09632048
-0.8948642 -15.807788 1.94406 5 29 0.09632048
-1.6188339 -15.299416 1.2559421 10 28 0.09632279
-0.18817414 -24.502953 -0.9983055 9 13 0.09632279
-1.5720669 -10.108249 -0.35723123 11 14 0.096325092
-1.0488362 -18.527706 4.9724321 11 31 0.096325092
-1.500158 -14.177822 2.5994136 86 30 0.096327394
-0.76437652 -13.502722 -0.31470376 7 16 0.096327394
-0.2741999 -24.546732 -0.4284915 6 17 0.096348129
-0.049230143 -0.8189801 -0.22967821 1 1 0.096350439
-0.82494903 -7.5447268 -1.5179479 16 2 0.096352741
-1.099979 -18.298971 0 5 20 0.096352741
-2.0261331 -12.734956 -0.15012342 2 18 0.096355043
-0.56894666 -9.4648514 -1.4751686 2 3 0.096355043
-1.2041713 -11.012976 -1.4101635 4 4 0.096357346
-1.6686319 -15.260788 -0.08922451 82 19 0.096359655
-0.73451072 -12.219133 -1.318579 18 5 0.096359655
-1.8222573 -11.453526 -1.0826126 49 6 0.096361957
-1.1023207 -18.337927 0.4274835 4 24 0.096361957
-1.9262089 -12.106897 0.14271969 2 22 0.09636426
-0.76832521 -12.781662 -0.89539409 12 8 0.09636426
-1.65493 -15.135474 0.26576525 42 23 0.096368864
-0.18949832 -16.964136 -1.0872782 6 9 0.096368864
-1.6187762 -10.174576 -0.59999478 71 10 0.096371174
-1.0894926 -18.124521 1.0574327 8 27 0.096371174
-1.6590232 -15.172909 0.62184447 11 26 0.096373476
-0.77224416 -12.846856 -0.59950703 11 12 0.096373476
-1.2860337 -11.761664 -0.62007648 39 11 0.096375778
-0.93312287 -15.523194 1.9094491 5 29 0.096375778
-1.6674609 -15.250078 1.2523621 8 28 0.096378081
-0.19254217 -17.236626 -0.70228207 17 13 0.096378081
-1.6186469 -10.173763 -0.35974401 3 14 0.09638039
-1.1019101 -18.331095 4.9206681 6 31 0.09638039
-1.550065 -14.176412 2.600131 87 30 0.096382692
-0.81942213 -13.631698 -0.3177745 2 16 0.096382692
-0.056926187 -0.50432974 -0.23666623 3 0 0.096403427
-1.7162595 -15.204967 -0.44531789 22 15 0.09640573
-0.05013226 -0.78805017 -0.22105181 1 1 0.09640573
-0.85128027 -7.541801 -1.5179479 15 2 0.096408039
-0.18895055 -2.9701934 -0.46302706 0 3 0.096410342
-1.243052 -11.012649 -1.4106687 9 4 0.096412644
-0.30674538 -20.9214 0.1216085 46 21 0.096412644
-1.5985155 -14.16183 -0.082831398 22 19 0.096414946
-0.77640182 -12.204587 -1.3172938 21 5 0.096414946
-1.8596687 -11.431371 -1.0811255 54 6 0.096417248
-0.79647064 -12.520059 -0.87725741 11 8 0.096419558
-1.1581526 -10.260494 -0.84293604 4 7 0.09642186
-0.30708966 -20.944881 0.60962123 42 25 0.09642186
-1.5969533 -14.147989 0.24852227 74 23 0.096424162
-0.2476017 -16.887537 -1.0824176 7 9 0.096424162
-1.6619766 -10.216158 -0.60278541 35 10 0.096426465
-1.1220769 -17.638399 1.0292933 100 27 0.096426465
-1.5967693 -14.146359 0.57999742 84 26 0.096428774
-0.81175643 -12.760342 -0.5955984 11 12 0.096428774
-1.3243939 -11.733287 -0.61882037 27 11 0.096431077
-0.97041589 -15.254376 1.876788 7 29 0.096431077
-1.5990555 -14.166614 1.1638376 60 28 0.096433379
-0.24878287 -16.9681 -0.69137251 25 13 0.096433379
-1.6650623 -10.235126 -0.36211717 15 14 0.096435681
-1.1403804 -17.926121 4.8129992 24 31 0.096435681
-0.056171168 -0.48252249 -0.2265234 3 0 0.096458726
-0.31039786 -17.098577 -0.29850596 47 17 0.096458726
-1.6417226 -14.102753 -0.41320196 16 15 0.096461028
-0.065007135 -0.96850395 -0.27173197 1 1 0.096461028
-0.87805462 -7.5426798 -1.5187324 15 2 0.09646333
-1.1746626 -17.500624 0 60 20 0.09646333
-2.0421727 -12.282541 -0.14495477 9 18 0.096465632
-0.20011151 -2.9813466 -0.46487182 2 3 0.096465632
-1.2791919 -10.988536 -1.4081433 4 4 0.096467942
-0.38006386 -20.936197 0.12170148 24 21 0.096467942
-1.6474777 -14.15219 -0.082808152 12 19 0.096470244
-0.81846678 -12.193867 -1.316437 62 5 0.096470244
-1.8969479 -11.409094 -1.0796384 54 6 0.096472546
-1.1764871 -17.527805 0.40877989 100 24 0.096472546
-2.2855542 -13.746346 0.16223015 10 22 0.096474849
-0.82360125 -12.270362 -0.85995781 10 8 0.096474849
-1.1925787 -10.24451 -0.84195966 6 7 0.096477158
-0.38034481 -20.951675 0.60985398 25 25 0.096477158
-0.30495521 -16.798763 -1.0767893 13 9 0.096479461
-1.9000072 -11.427494 -0.67464525 37 10 0.096481763
-1.1766871 -17.530785 1.0232468 74 27 0.096481763
-0.88867253 -13.239822 -0.61811942 84 12 0.096484065
-1.3639573 -11.716688 -0.61819237 27 11 0.096486375
-1.0071733 -15.005297 1.8465644 8 29 0.096486375
-0.30815667 -16.975121 -0.69169819 28 13 0.096488677
-2.0443454 -12.295608 -0.43526652 5 14 0.096490979
-1.1843176 -17.644468 4.7384591 10 31 0.096490979
-1.598945 -13.735285 2.5212088 4 30 0.096493281
-1.1210506 -16.701889 -0.38951805 38 16 0.096493281
-0.37007946 -17.097389 -0.29850596 35 17 0.096514225
-1.2290379 -10.246182 -0.30033067 38 15 0.096516527
-0.045048814 -0.63782942 -0.17899805 1 1 0.096516527
-0.90391034 -7.5356746 -1.5179479 16 2 0.096518829
-1.2224972 -17.308884 0 55 20 0.096518829
-2.0877123 -12.291111 -0.14514104 2 18 0.096521139
-0.20940301 -2.9648595 -0.46241218 7 3 0.096521139
-1.3180127 -10.987943 -1.4086484 3 4 0.096523441
-0.45322698 -20.938744 0.12172472 16 21 0.096523441
-1.2385888 -10.325806 -0.060443908 5 19 0.096525744
-0.85458082 -12.099692 -1.3065841 46 5 0.096525744
-1.9340926 -11.386697 -1.0781512 54 6 0.096528046
-1.2328722 -17.45578 0.40719804 100 24 0.096528046
-0.84927791 -12.024611 -0.84293723 11 8 0.096530356
-1.2273809 -10.232368 -0.84130871 7 7 0.096532658
-0.4533889 -20.946224 0.60973758 25 25 0.096532658
-0.35875285 -16.57411 -1.0624628 4 9 0.09653496
-1.9372092 -11.405046 -0.673715 39 10 0.096537262
-1.2342148 -17.474787 1.0202236 100 27 0.096537262
-0.9360075 -13.252583 -0.61886394 59 12 0.096539572
-1.4053227 -11.715824 -0.61840177 12 11 0.096541874
-1.0405238 -14.732388 1.813416 4 29 0.096541874
-1.6357166 -13.63656 1.1212025 1 28 0.096544176
-0.36749381 -16.977936 -0.69186097 26 13 0.096544176
-1.9439954 -11.444999 -0.40539256 1 14 0.096546479
-1.2246672 -17.339607 4.6577077 9 31 0.096546479
-1.2235751 -17.324144 -0.4041273 34 16 0.096548788
-0.061847303 -0.50009727 -0.23497579 3 0 0.096569523
-0.4330481 -17.107914 -0.29871538 24 17 0.096569523
-1.2494094 -10.102725 -0.296258 65 15 0.096571825
-0.9320063 -7.5362034 -1.5187324 16 2 0.096574128
-1.2960105 -17.439913 0 20 20 0.096574128
-1.978797 -11.396704 -0.13466406 1 18 0.09657643
-0.70357132 -9.4676876 -1.4770133 3 3 0.09657643
-1.3577913 -10.9791 -1.4081433 9 4 0.09657874
-0.53017372 -20.944941 0.12177123 22 21 0.09657874
-1.2744641 -10.305317 -0.060350917 12 19 0.096581042
-0.89479828 -12.040955 -1.3005867 51 5 0.096581042
-1.9737715 -11.36776 -1.0770359 76 6 0.096583344
-1.295956 -17.43918 0.40691885 91 24 0.096583344
-1.9774286 -11.388823 0.13457093 1 22 0.096585646
-0.88891071 -11.961728 -0.83875179 48 8 0.096585646
-1.263899 -10.219888 -0.84065783 7 7 0.096587956
-0.53016061 -20.944422 0.60973758 27 25 0.096587956
-1.2880359 -10.415058 0.18318045 1 23 0.096590258
-0.41758069 -16.496862 -1.057602 3 9 0.096590258
-1.9776331 -11.39 -0.67324996 68 10 0.09659256
-1.2973695 -17.458199 1.019526 80 27 0.09659256
-1.6830262 -13.60895 0.55866677 4 26 0.096594863
-0.8987034 -12.093505 -0.56488782 11 12 0.096594863
-1.2418522 -10.041616 -0.53026801 71 11 0.096597172
-1.077745 -14.502797 1.7856297 4 29 0.096597172
-1.6685618 -13.491991 1.1098114 1 28 0.096599475
-0.42992336 -16.984468 -0.69218671 35 13 0.096599475
-1.9811448 -11.410226 -0.40441537 2 14 0.096601777
-1.266453 -17.04217 4.5790267 9 31 0.096601777
-1.6348871 -13.219697 2.4286544 1 30 0.096604079
-0.89884174 -12.095366 -0.28222844 4 16 0.096604079
-0.067252547 -0.52864838 -0.24849954 3 0 0.096624814
-0.49333745 -17.126289 -0.29906446 27 17 0.096624814
-1.2861798 -10.110202 -0.29660708 76 15 0.096627124
-0.95830619 -7.5329046 -1.5187324 16 2 0.096629426
-2.0199616 -11.397604 -0.13475718 0 18 0.096631728
-0.73722774 -9.4730539 -1.4782431 25 3 0.096631728
-1.3039671 -10.250023 -1.3152099 19 4 0.09663403
-0.60051584 -20.847004 0.12121328 82 21 0.09663403
-1.307399 -10.276999 -0.060211431 2 19 0.09663634
-0.92879951 -11.934667 -1.2894486 33 5 0.09663634
-2.0120494 -11.352959 -1.0762924 81 6 0.096638642
-1.3518562 -17.37076 0.40543002 63 24 0.096638642
-2.0164719 -11.377913 0.13452436 0 22 0.096640944
-0.92911035 -11.938662 -0.83735675 47 8 0.096640944
-1.3000674 -10.219369 -0.84098327 7 7 0.096643247
-0.60073227 -20.854517 0.60717767 61 25 0.096643247
-1.323373 -10.402565 0.18304084 1 23 0.096645556
-0.47481656 -16.483332 -1.0568345 3 9 0.096645556
-2.0138943 -11.363368 -0.67208713 38 10 0.096647859
-1.3542725 -17.401808 1.0165027 24 27 0.096647859
-1.7426238 -13.698147 0.56257468 2 26 0.096650161
-1.0332969 -13.277413 -0.62035298 94 12 0.096650161
-1.2768954 -10.037221 -0.53026801 63 11 0.096652463
-1.1108027 -14.273329 1.7578436 6 29 0.096652463
-1.6779122 -13.189472 1.0854021 2 28 0.096654765
-0.48955116 -16.994846 -0.69267517 28 13 0.096654765
-1.3049471 -16.768 4.5065575 9 31 0.096657075
-0.062902756 -0.48169121 -0.2265234 3 0 0.096680112
-0.54987139 -17.11656 -0.2989248 34 17 0.096680112
-1.3207352 -10.113811 -0.2968398 58 15 0.096682414
-0.45555922 -5.6130466 -1.5764767 1 1 0.096682414
-0.98429698 -7.5374637 -1.5203013 18 2 0.096684724
-1.4072456 -17.338987 0 5 20 0.096684724
-0.76767862 -9.4587393 -1.4763983 17 3 0.096687026
-1.3261331 -10.155147 -1.3035932 67 4 0.096689329
-1.3419899 -10.276573 -0.060234677 1 19 0.096691631
-0.96515435 -11.891881 -1.2851647 35 5 0.096691631
-2.0468545 -11.330545 -1.0748053 78 6 0.09669394
-0.96708161 -11.915628 -0.83596158 41 8 0.096696243
-1.3339494 -10.215001 -0.84098327 6 7 0.096698545
-1.3635588 -10.441741 0.18380874 2 23 0.096700847
-0.52909088 -16.469698 -1.056067 4 9 0.096700847
-2.0501461 -11.348767 -0.67162204 22 10 0.096703149
-1.4113262 -17.389263 1.0160377 11 27 0.096703149
-1.7150688 -13.133504 0.53961575 8 26 0.096705459
-1.0624527 -13.090715 -0.61179125 14 12 0.096705459
-1.3194836 -10.104226 -0.53403616 20 11 0.096707761
-1.1430342 -14.083579 1.7349322 92 29 0.096707761
-1.7159628 -13.140349 1.0818222 8 28 0.096710064
-0.54654783 -17.013103 -0.69348931 31 13 0.096710064
-2.0616074 -11.412211 -0.40497375 100 14 0.096712366
-1.3430423 -16.547924 4.4485822 5 31 0.096712366
-1.8583337 -14.230586 2.6166329 2 30 0.096714675
-1.4046003 -17.306393 -0.4040342 22 16 0.096714675
-0.06795752 -0.50662005 -0.23835671 3 0 0.09673541
-0.61061096 -17.142515 -0.29941347 39 17 0.09673541
-1.3602825 -10.140841 -0.29777071 32 15 0.096737713
-1.010601 -7.5339818 -1.5203013 18 2 0.096740015
-1.0138311 -11.973155 0 4 20 0.096740015
-2.1156144 -11.481929 -0.1359213 3 18 0.096742325
-0.80035681 -9.4520636 -1.4757835 16 3 0.096742325
-1.356297 -10.111129 -1.2985425 87 4 0.096744627
-1.3826388 -10.307506 -0.060443908 12 19 0.096746929
-1.0056512 -11.876553 -1.2838795 39 5 0.096746929
-2.0835054 -11.307666 -1.0733181 48 6 0.096749231
-1.4730988 -17.397018 0.40626749 11 24 0.096749231
-11.493461 -62.377674 0.73841721 92 22 0.096751533
-1.0069847 -11.892301 -0.83456647 39 8 0.096751533
-1.380728 -10.293261 -0.84781784 8 7 0.096753843
-0.72886252 -20.462353 0.59589052 4 25 0.096753843
-1.7594355 -13.116508 0.23100007 3 23 0.096756145
-0.58629197 -16.459774 -1.0555553 7 9 0.096756145
-2.0846822 -11.314053 -0.66999412 17 10 0.096758448
-1.4767329 -17.439938 1.0192934 27 27 0.096758448
-1.7593076 -13.115554 0.53912729 5 26 0.09676075
-1.0218354 -12.067684 -0.56414336 4 12 0.09676075
-1.3637731 -10.166862 -0.53759497 9 11 0.096763059
-1.1941968 -14.10324 1.737857 100 29 0.096763059
-1.8455642 -13.758593 1.1332444 5 28 0.096765362
-0.60536063 -16.995115 -0.69283795 27 13 0.096765362
-1.5018539 -17.736612 4.7695179 1 31 0.096767664
-1.906949 -14.216213 2.6151981 3 30 0.096769966
-0.069725551 -0.50637972 -0.23835671 3 0 0.096790709
-0.67091525 -17.152269 -0.29962292 11 17 0.096790709
-0.47849095 -5.4255524 -1.5247183 6 1 0.096793011
-1.0368935 -7.5304079 -1.5203013 16 2 0.096795313
-1.0549165 -11.961573 0 1 20 0.096795313
-2.1593733 -11.494127 -0.13615412 0 18 0.096797615
-0.83508223 -9.4688978 -1.4788581 10 3 0.096797615
-1.3937483 -10.122055 -1.3005627 105 4 0.096799918
-0.79013634 -20.200211 0.11749366 5 21 0.096799918
-1.4246123 -10.346204 -0.060699631 7 19 0.096802227
-1.0453553 -11.853161 -1.2817376 37 5 0.096802227
-2.1200225 -11.284667 -1.0718311 62 6 0.096804529
-1.5366274 -17.423637 0.4070119 19 24 0.096804529
-11.74067 -62.494404 0.74027979 44 22 0.096806832
-1.0463874 -11.864863 -0.8328923 42 8 0.096806832
-1.4171939 -10.292328 -0.84814334 8 7 0.096809134
-0.78606457 -20.096115 0.58530158 6 25 0.096809134
-1.8903153 -13.728358 0.24189036 17 23 0.096811444
-0.64358807 -16.453636 -1.0552994 7 9 0.096811444
-2.1226883 -11.298857 -0.66952902 31 10 0.096813746
-1.5372502 -17.430696 1.0190609 19 27 0.096813746
-1.8901266 -13.726988 0.56452864 20 26 0.096816048
-1.3965297 -10.142255 -0.53654832 37 11 0.09681835
-1.2437682 -14.10294 1.7383444 50 29 0.09681835
-1.8196203 -13.214938 1.0889822 4 28 0.09682066
-0.66561866 -17.016859 -0.69381493 15 13 0.09682066
-1.9656868 -14.275742 2.6273952 3 30 0.096825264
-1.0679808 -12.109707 -0.2828798 10 16 0.096825264
-0.067943454 -0.48100612 -0.2265234 3 0 0.096845999
-1.4299275 -10.12318 -0.29753798 74 15 0.096848302
-0.49672338 -5.4161777 -1.5225617 8 1 0.096848302
-1.063722 -7.5306268 -1.5210859 15 2 0.096850611
-1.1083541 -12.085283 0 1 20 0.096850611
-2.1829338 -11.400097 -0.13512971 0 18 0.096852913
-0.86849093 -9.469861 -1.479473 3 3 0.096852913
-1.4262978 -10.097485 -1.2980374 101 4 0.096855216
-0.84582871 -19.849649 0.1154711 4 21 0.096855216
-1.4635162 -10.360972 -0.060815871 11 19 0.096857518
-1.0856349 -11.837559 -1.2804524 38 5 0.096857518
-2.1564047 -11.261552 -1.070344 83 6 0.096859828
-1.5967081 -17.410202 0.40682581 20 24 0.096859828
-1.0863398 -11.845244 -0.8317762 40 8 0.09686213
-1.45367 -10.291266 -0.84846878 6 7 0.096864432
-0.8412295 -19.741718 0.57506168 5 25 0.096864432
-1.9309531 -13.670196 0.24098283 10 23 0.096866734
-0.69914913 -16.407419 -1.0524853 6 9 0.096866734
-2.1576102 -11.267847 -0.66813368 81 10 0.096869044
-1.5984505 -17.429201 1.0192934 19 27 0.096869044
-1.9307646 -13.66886 0.56241184 12 26 0.096871346
-1.1381713 -12.410405 -0.5805223 27 12 0.096871346
-1.4246615 -10.0859 -0.53382683 40 11 0.096873648
-1.2951651 -14.122234 1.7412694 22 29 0.096873648
-1.8674111 -13.220349 1.0899585 2 28 0.096875951
-2.1659639 -11.311473 -0.4021818 1 14 0.09687826
-1.6196433 -17.660284 4.7519178 4 31 0.09687826
-2.0182586 -14.288275 2.6309824 2 30 0.096880563
-1.1124367 -12.129799 -0.28343812 2 16 0.096880563
-0.90411764 -19.608179 -0.34262568 1 17 0.096901298
-1.460097 -10.082514 -0.29649073 104 15 0.0969036
-0.51562583 -5.4144111 -1.5225617 9 1 0.0969036
-1.0894395 -7.5229859 -1.5203013 16 2 0.096905902
-1.1516694 -12.093287 0 1 20 0.096905902
-2.2242453 -11.40026 -0.13522282 0 18 0.096908212
-0.8998183 -19.514936 0.11354156 4 21 0.096910514
-1.1239319 -11.802025 -1.2770253 30 5 0.096912816
-2.1941755 -11.246139 -1.0696003 63 6 0.096915118
-1.6582278 -17.412485 0.4070119 22 24 0.096915118
-12.136843 -62.206787 0.73785847 64 22 0.096917428
-1.1269232 -11.833436 -0.83121812 41 8 0.096917428
-1.4941545 -10.317694 -0.85107243 8 7 0.09691973
-0.8935594 -19.379196 0.56458908 5 25 0.09691973
-1.8302014 -12.638223 0.22290213 3 23 0.096922033
-0.63433039 -13.75713 -0.88261408 2 9 0.096922033
-2.1953988 -11.252409 -0.66766852 54 10 0.096924335
-1.6600355 -17.431467 1.0197585 21 27 0.096924335
-1.8266717 -12.61385 0.51926214 3 26 0.096926644
-1.2311068 -12.927432 -0.60490465 38 12 0.096926644
-1.4615759 -10.092727 -0.53445488 35 11 0.096928947
-1.3421932 -14.093913 1.7383444 30 29 0.096928947
-1.9912536 -13.750349 1.1342208 34 28 0.096931249
-0.88822645 -19.263536 -0.78565061 3 13 0.096931249
-2.2352891 -11.456863 -0.40762612 1 14 0.096933551
-1.4893409 -15.63906 4.2094331 1 31 0.096933551
-1.7985373 -12.419571 2.2880292 1 30 0.096935853
-1.6703594 -17.539873 -0.4099896 1 16 0.096935853
-0.078125 -0.52715129 -0.24849954 3 0 0.096956596
-0.95590872 -19.337439 -0.33794838 5 17 0.096956596
-1.4964561 -10.097392 -0.29707256 78 15 0.096958898
-0.53433442 -5.4203377 -1.5247183 12 1 0.096958898
-1.1143818 -7.5193315 -1.5203013 15 2 0.0969612
-1.183527 -12.005806 0 1 20 0.0969612
-2.2565868 -11.365358 -0.13489687 0 18 0.096963502
-1.5182647 -10.244546 -1.3182403 7 4 0.096965812
-0.94576889 -19.132315 0.11133302 4 21 0.096965812
-1.8553512 -12.51905 -0.073555581 3 19 0.096968114
-1.1615038 -11.782401 -1.2753118 29 5 0.096968114
-2.2275808 -11.219269 -1.0677415 70 6 0.096970417
-1.7167481 -17.41485 0.40719804 22 24 0.096970417
-12.37267 -62.315277 0.7396279 37 22 0.096972719
-1.1649855 -11.81772 -0.83038104 39 8 0.096972719
-1.7054539 -11.507612 -0.94968623 47 7 0.096975029
-0.93887001 -18.992754 0.55341828 3 25 0.096975029
-1.847478 -12.465924 0.21997014 1 23 0.096977331
-0.66556197 -13.463903 -0.86393851 16 9 0.096977331
-2.2303698 -11.233315 -0.66697085 76 10 0.096979633
-1.7186174 -17.433813 1.0202236 21 27 0.096979633
-1.8456419 -12.453535 0.5129118 2 26 0.096981935
-1.273971 -12.923279 -0.60490465 67 12 0.096981935
-1.4921099 -10.068066 -0.53340811 103 11 0.096984237
-1.3904831 -14.105188 1.7402943 24 29 0.096984237
-1.9608629 -13.230993 1.0919113 3 28 0.096986547
-0.93651581 -18.945131 -0.77278709 3 13 0.096986547
-2.2763848 -11.465072 -0.4081845 1 14 0.096988849
-1.5180745 -15.399487 4.1462812 1 31 0.096988849
-1.8206766 -12.285082 2.2643526 1 30 0.096991152
-1.5919936 -16.149328 -0.37760729 1 16 0.096991152
-0.72729063 -13.694613 -0.2393772 3 17 0.097011887
-1.5508724 -10.206474 -0.30044702 69 15 0.097014196
-0.55262911 -5.4030156 -1.5204051 9 1 0.097014196
-1.1419333 -7.5151973 -1.5203013 15 2 0.097016498
-2.8616385 -27.978035 0 5 20 0.097016498
-2.29426 -11.33741 -0.13466406 0 18 0.097018801
-0.30685198 -3.0000701 -0.46917617 0 3 0.097018801
-1.6535608 -10.882278 -1.4010723 10 4 0.097021103
-0.99764103 -18.785212 0.10933372 6 21 0.097021103
-1.8795902 -12.369804 -0.072718672 3 19 0.097023413
-1.2026561 -11.758283 -1.2731698 30 5 0.097023413
-2.2655251 -11.195413 -1.0662544 54 6 0.097025715
-1.7817839 -17.420374 0.40747717 5 24 0.097025715
-12.623983 -62.383198 0.7409783 28 22 0.097028017
-1.2054485 -11.785584 -0.82842785 39 8 0.097028017
-1.7482177 -11.505226 -0.95001167 42 7 0.097030319
-0.99151039 -18.669773 0.54410934 3 25 0.097030319
-1.8733274 -12.328588 0.2176664 2 23 0.097032622
-0.69902653 -13.16241 -0.84475124 10 9 0.097032622
-2.2683578 -11.209411 -0.66604066 84 10 0.097034931
-1.78494 -17.451231 1.021619 21 27 0.097034931
-1.8720597 -12.320245 0.50770122 3 26 0.097037233
-1.3270191 -12.974172 -0.60751039 34 12 0.097037233
-1.5278 -10.054631 -0.53298938 103 11 0.097039536
-1.4417666 -14.096048 1.7398069 26 29 0.097039536
-2.0057487 -13.200069 1.0899585 4 28 0.097041838
-0.72637457 -13.677363 -0.55801547 4 13 0.097041838
-2.3183899 -11.456652 -0.4081845 1 14 0.097044148
-1.5560274 -15.213169 4.0976233 1 31 0.097044148
-1.842044 -12.122708 2.2356534 1 30 0.09704645
-1.6287924 -15.924586 -0.37248942 1 16 0.09704645
-0.99186146 -17.521276 -0.30632463 5 17 0.097067185
-1.5920206 -10.236555 -0.3014943 54 15 0.097069487
-0.57148594 -5.4010539 -1.5204051 6 1 0.097069487
-1.1675568 -7.5072889 -1.5195168 15 2 0.097071797
-2.3378563 -11.34892 -0.13489687 0 18 0.097074099
-1.6909275 -10.872518 -1.4005673 12 4 0.097076401
-1.0476091 -18.50606 0.10772964 4 21 0.097076401
-1.9018581 -12.228784 -0.071928248 3 19 0.097078703
-1.2428561 -11.746103 -1.272313 30 5 0.097078703
-2.302984 -11.179636 -1.0655109 53 6 0.097081006
-1.6183081 -15.294459 0.35788015 3 24 0.097081006
-2.3305933 -11.313663 0.13447781 1 22 0.097083315
-1.2449014 -11.765433 -0.82731181 36 8 0.097083315
-1.7859175 -11.483295 -0.94870985 37 7 0.097085617
-1.0392742 -18.358824 0.53514951 3 25 0.097085617
-1.8954545 -12.187609 0.21529289 3 23 0.09708792
-0.73007756 -12.896852 -0.82786644 8 9 0.09708792
-2.3034439 -11.181869 -0.66487789 70 10 0.097090222
-1.6155878 -15.268751 0.89417821 6 27 0.097090222
-1.8996997 -12.214905 0.50363052 6 26 0.097092532
-1.2936783 -12.226418 -0.57270509 37 12 0.097092532
-1.5665714 -10.072919 -0.53424549 104 11 0.097094834
-1.4922158 -14.102775 1.7412694 27 29 0.097094834
-2.0273073 -13.035411 1.0769403 5 28 0.097097136
-0.76688492 -13.547055 -0.55280495 2 13 0.097097136
-2.3285248 -11.303621 -0.4030194 1 14 0.097099438
-1.5883882 -15.01169 4.0448241 2 31 0.097099438
-1.8619742 -11.972334 2.2091069 1 30 0.097101748
-1.0381384 -17.270191 -0.30199644 3 17 0.097122483
-1.6283718 -10.234884 -0.30161065 23 15 0.097124785
-0.59075451 -5.402854 -1.5214833 9 1 0.097124785
-1.1943716 -7.5070415 -1.5203013 15 2 0.097127087
-1.6673565 -15.249116 0 82 20 0.097127087
-2.3561203 -11.238909 -0.1336862 0 18 0.09712939
-1.0349197 -9.4650488 -1.4813178 15 3 0.09712939
-1.7276229 -10.858711 -1.3995571 6 4 0.097131699
-1.9281929 -12.119364 -0.071323812 2 19 0.097134002
-1.2821215 -11.725879 -1.2705995 32 5 0.097134002
-2.3395431 -11.159835 -1.0643955 58 6 0.097136304
-2.3594031 -11.254568 0.13387246 0 22 0.097138606
-1.2850959 -11.753081 -0.82675374 38 8 0.097138606
-1.8234856 -11.461243 -0.94740802 38 7 0.097140916
-2.2006574 -13.831899 0.24447331 15 23 0.097143218
-0.75904423 -12.627254 -0.81072587 9 9 0.097143218
-2.3416431 -11.16985 -0.66464531 55 10 0.09714552
-1.6697445 -15.270956 0.89464331 38 27 0.09714552
-2.1884928 -13.755439 0.56745952 9 26 0.097147822
-1.4084435 -12.881179 -0.60360175 35 12 0.097147822
-1.6073722 -10.102894 -0.53612959 105 11 0.097150132
-1.5431613 -14.113266 1.7432193 29 29 0.097150132
-1.8855003 -11.851027 0.97962838 11 28 0.097152434
-2.3523839 -11.221087 -0.40036702 1 14 0.097154737
-1.6185218 -14.802489 3.9899545 3 31 0.097154737
-1.8839689 -11.841401 2.1861477 1 30 0.097157039
-1.6647319 -15.225112 -0.35639131 68 16 0.097157039
-0.82190645 -12.919911 -0.22597377 7 17 0.097200394
-0.60960978 -5.4007597 -1.5214833 9 1 0.097202696
-1.2205678 -7.5028267 -1.5203013 15 2 0.097204998
-1.599887 -14.173993 0 33 20 0.097204998
-2.3995075 -11.250175 -0.13391903 1 18 0.097207308
-1.0683948 -9.4653063 -1.4819326 21 3 0.097207308
-1.7648779 -10.8487 -1.399052 10 4 0.09720961
-1.1183708 -17.580166 0.10238268 69 21 0.09720961
-1.8767128 -11.536147 -0.067929655 3 19 0.097211912
-1.3208131 -11.701573 -1.2684575 38 5 0.097211912
-2.3768213 -11.143809 -1.0636519 62 6 0.097214215
-1.6025938 -14.197973 0.33247682 16 24 0.097214215
-2.3995075 -11.250175 0.13391903 0 22 0.097216524
-1.323875 -11.7287 -0.82535863 36 8 0.097216524
-1.8609197 -11.439067 -0.94610614 37 7 0.097218826
-1.1156317 -17.537109 0.51141155 93 25 0.097218826
-2.0967274 -12.888576 0.22792843 13 23 0.097221129
-0.78867006 -12.397454 -0.79614353 21 9 0.097221129
-2.377286 -11.145988 -0.66371512 50 10 0.097223431
-1.5994203 -14.169858 0.83045781 70 27 0.097223431
-1.9021424 -11.692463 0.48262557 30 26 0.097225741
-1.4516044 -12.860302 -0.60285723 42 12 0.097225741
-1.6490407 -10.136648 -0.53822303 103 11 0.097228043
-1.5933053 -14.115684 1.7441941 30 29 0.097228043
-1.8967681 -11.659428 0.96433181 14 28 0.097230345
-0.85991848 -13.51744 -0.55182797 45 13 0.097230345
-2.413218 -11.314457 -0.40399656 2 14 0.097232647
-1.8810598 -11.562868 2.1359246 0 30 0.097234957
-1.112345 -16.572184 -0.28991938 3 17 0.097255692
-2.0427585 -12.286064 -0.36246806 10 15 0.097257994
-0.62801373 -5.394773 -1.5204051 9 1 0.097257994
-1.2473946 -7.5023894 -1.5210859 15 2 0.097260296
-1.2145846 -10.433542 0 13 20 0.097260296
-2.6592374 -12.258021 -0.14602576 2 18 0.097262599
-1.1009728 -9.457593 -1.4813178 16 3 0.097262599
-1.8040394 -10.8503 -1.4000621 9 4 0.097264908
-1.1719643 -17.460417 0.10170849 60 21 0.097264908
-2.1223147 -12.76455 -0.075206168 2 19 0.09726721
-1.3602732 -11.68504 -1.2671725 33 5 0.09726721
-2.4123302 -11.119877 -1.0621649 74 6 0.097269513
-1.6465974 -14.144626 0.33136016 19 24 0.097269513
-13.486133 -62.165676 0.74055916 18 22 0.097271815
-1.8982242 -11.41677 -0.94480431 37 7 0.097274125
-1.1725591 -17.469278 0.5095498 94 25 0.097274125
-2.2892969 -13.768856 0.24363559 14 23 0.097276427
-0.8169716 -12.171586 -0.78181708 12 9 0.097276427
-2.4127932 -11.122012 -0.66278487 70 10 0.097278729
-1.2017184 -10.32302 -0.48410982 25 12 0.097281031
-1.9019288 -11.439051 -0.6077252 37 11 0.097283341
-1.6425706 -14.110035 1.7441941 9 29 0.097283341
-0.89907008 -13.394724 -0.54694307 30 13 0.097285643
-2.401849 -11.071563 -0.3956207 1 14 0.097287945
-1.6490006 -14.165271 3.8212047 47 31 0.097287945
-1.9091489 -11.482476 2.1222925 1 30 0.097290248
-1.2013087 -10.3195 -0.24175055 21 16 0.097290248
-1.1622947 -16.456493 -0.2879647 11 17 0.097310983
-0.64546442 -5.381074 -1.5171702 9 1 0.097313292
-1.2735746 -7.4979901 -1.5210859 15 2 0.097315595
-1.240992 -10.345837 0 7 20 0.097315595
-2.70804 -12.276005 -0.14635171 2 18 0.097317897
-1.1368029 -9.4772387 -1.4850072 15 3 0.097317897
-1.8392442 -10.82829 -1.3980418 7 4 0.097320199
-1.2306494 -17.424301 0.10152251 98 21 0.097320199
-1.9424686 -11.436008 -0.067418203 1 19 0.097322509
-2.4468405 -11.091943 -1.0603061 75 6 0.097324811
-13.668579 -61.96199 0.73869658 27 22 0.097327113
-1.2075545 -10.067078 -0.70900482 60 8 0.097327113
-1.9367285 -11.402214 -0.94415337 31 7 0.097329415
-1.2326846 -17.453115 0.50920075 79 25 0.097329415
-0.84595299 -11.97753 -0.76953721 42 9 0.097331725
-2.4481597 -11.097923 -0.66185468 74 10 0.097334027
-1.2082402 -10.072794 -0.47257009 59 12 0.09733633
-1.9371636 -11.404777 -0.60625976 32 11 0.097338632
-1.9440722 -11.44545 0.94773346 1 28 0.097340934
-0.94779074 -13.419412 -0.54808289 10 13 0.097340934
-2.7642701 -12.530906 -0.44810954 3 14 0.097343244
-1.679109 -13.998308 3.7777228 18 31 0.097343244
-1.9478997 -11.467983 2.1208575 1 30 0.097345546
-1.2201768 -10.172307 -0.23840065 43 16 0.097345546
-0.89683443 -12.096954 -0.2117326 3 17 0.097366281
-1.9747365 -11.385119 -0.33628657 1 15 0.097368583
-0.66660398 -5.397903 -1.5225617 15 1 0.097368583
-1.2990688 -7.489634 -1.5203013 16 2 0.097370893
-1.2731752 -10.309684 0 7 20 0.097370893
-2.5732002 -11.47421 -0.13689914 0 18 0.097373195
-1.1693922 -9.4692888 -1.4843922 16 3 0.097373195
-1.8777081 -10.825713 -1.3985468 9 4 0.097375497
-1.289984 -17.399954 0.10140628 96 21 0.097375497
-1.9844258 -11.440982 -0.067487948 3 19 0.097377799
-1.2531796 -10.147766 -1.1013861 6 5 0.097377799
-2.4820564 -11.067789 -1.0588188 71 6 0.097380109
-1.680607 -13.608909 0.31907722 1 24 0.097380109
-13.828764 -61.664127 0.73571652 27 22 0.097382411
-1.2407306 -10.04696 -0.70788872 91 8 0.097382411
-1.9765168 -11.395384 -0.94415337 60 7 0.097384714
-1.2921202 -17.428768 0.50861889 81 25 0.097384714
-1.9773222 -11.400026 0.20195925 1 23 0.097387016
-0.88450986 -11.930714 -0.7667231 42 9 0.097387016
-2.4851356 -11.081519 -0.66138953 54 10 0.097389318
-1.6821338 -13.621273 0.79929537 7 27 0.097389318
-1.974618 -11.384436 0.47073904 1 26 0.097391628
-1.2389852 -10.032825 -0.47089499 56 12 0.097391628
-1.9783264 -11.405817 -0.60667849 50 11 0.09739393
-1.6918881 -13.70026 1.694959 4 29 0.09739393
-1.9806049 -11.418953 0.94610614 1 28 0.097396232
-0.92341286 -12.455457 -0.5088411 12 13 0.097396232
-2.8473577 -12.696712 -0.45439145 3 14 0.097398534
-1.2507755 -10.128299 -0.23747014 74 16 0.097400844
-2.0096951 -11.36276 -0.33582112 1 15 0.097423881
-0.68401575 -5.3918409 -1.5214833 10 1 0.097423881
-1.3245815 -7.4891477 -1.5210859 15 2 0.097426184
-1.3063499 -10.297468 0 3 20 0.097426184
-1.2002901 -9.4614382 -1.4837773 18 3 0.097428493
-1.9135975 -10.819427 -1.3985468 15 4 0.097430795
-1.3427345 -17.331772 0.10103431 36 21 0.097430795
-2.0126019 -11.379196 -0.067162484 1 19 0.097433098
-1.2883257 -10.155391 -1.1026713 7 5 0.097433098
-2.5160923 -11.047848 -1.0577035 81 6 0.0974354
-1.7050928 -13.44061 0.31526208 1 24 0.0974354
-2.9745004 -13.06066 0.15594396 8 22 0.097437702
-1.2755476 -10.054667 -0.70872581 101 8 0.097437702
-2.0094345 -11.361287 -0.94187516 75 7 0.097440012
-2.0179017 -11.409161 0.20223849 1 23 0.097442314
-0.92252737 -11.907816 -0.76544386 44 9 0.097442314
-2.5192096 -11.061536 -0.66069186 70 10 0.097444616
-1.7368433 -13.690888 0.80371386 2 27 0.097444616
-2.0193205 -11.417183 0.47236732 2 26 0.097446918
-1.2772775 -10.068301 -0.47275624 54 12 0.097446918
-2.0105731 -11.367726 -0.60500371 68 11 0.097449228
-1.7428071 -13.737899 1.7003212 4 29 0.097449228
-2.0240159 -11.44373 0.94870985 6 28 0.09745153
-1.3416443 -17.317699 -0.70765543 61 13 0.09745153
-1.7748382 -13.990388 3.778758 2 31 0.097453833
-1.2853621 -10.13203 -0.23765625 73 16 0.097456135
-1.4000125 -17.324879 -0.30339265 19 17 0.097476877
-0.70139486 -5.3857236 -1.5204051 8 1 0.09747918
-1.3501053 -7.4885731 -1.5218703 15 2 0.097481482
-1.3399742 -10.289113 0 3 20 0.097481482
-3.0150919 -13.039034 -0.15580426 7 18 0.097483784
-1.2316591 -9.457406 -1.4837773 12 3 0.097483784
-1.9473536 -10.801306 -1.3970317 8 4 0.097486086
-1.3235363 -10.162893 -1.1039565 7 5 0.097488396
-2.5509205 -11.031683 -1.05696 78 6 0.097490698
-1.725899 -13.252471 0.31098166 2 24 0.097490698
-3.0177953 -13.050724 0.15594396 2 22 0.097493
-1.3130059 -10.082035 -0.710958 42 8 0.097493
-2.0463917 -11.350636 -0.94154972 77 7 0.097495303
-1.4070404 -17.411846 0.50838619 24 25 0.097495303
-2.0635309 -11.445702 0.2030064 2 23 0.097497612
-0.95975989 -11.87684 -0.7636531 63 9 0.097497612
-2.5513794 -11.033668 -0.65952909 62 10 0.097499914
-1.7121007 -13.146521 0.77208626 2 27 0.097499914
-2.0600071 -11.426156 0.47301865 2 26 0.097502217
-1.3189147 -10.127405 -0.47573423 16 12 0.097502217
-2.046133 -11.349201 -0.60437566 79 11 0.097504519
-1.7150363 -13.169062 1.630612 3 29 0.097504519
-2.0711496 -11.487959 0.95294082 1 28 0.097506829
-3.1674647 -13.697984 -0.49096614 12 14 0.097509131
-1.8257136 -14.018908 3.7880757 13 31 0.097509131
-2.0722654 -11.494149 2.1294672 0 30 0.097511433
-1.3205037 -10.139607 -0.23793541 37 16 0.097511433
-2.1106877 -11.466418 -0.33931199 30 15 0.09753447
-0.72112983 -5.3831167 -1.5204051 9 1 0.09753447
-1.3775433 -7.4835744 -1.5218703 16 2 0.09753678
-1.3798012 -10.299991 0 4 20 0.09753678
-3.0674391 -13.047361 -0.15603708 7 18 0.097539082
-1.2678884 -9.4645805 -1.485622 5 3 0.097539082
-1.987648 -10.797999 -1.3975368 11 4 0.097541384
-1.4148655 -16.744045 0.097663403 10 21 0.097541384
-2.111546 -11.471081 -0.067790166 2 19 0.097543687
-1.3628886 -10.173741 -1.10567 6 5 0.097543687
-2.5858676 -10.998997 -1.0547293 79 6 0.097545996
-2.6243951 -11.162873 0.13349995 0 22 0.097548299
-2.0843718 -11.323457 -0.93992251 67 7 0.097550601
-11.408479 -61.977142 1.0999902 37 23 0.097552903
-1.0026121 -11.865286 -0.76314139 52 9 0.097552903
-2.5881472 -11.008693 -0.65859884 65 10 0.097555213
-1.758153 -13.124326 0.77115607 5 27 0.097555213
-2.1062138 -11.442113 0.47399566 1 26 0.097557515
-1.3586771 -10.142303 -0.47666484 63 12 0.097557515
-2.085547 -11.32984 -0.60374761 102 11 0.097559817
-1.763292 -13.162687 1.630612 4 29 0.097559817
-2.1074674 -11.448923 0.95033711 1 28 0.097562119
-1.0209988 -12.082881 -0.49402362 6 13 0.097562119
-1.8791353 -14.027439 3.7922168 10 31 0.097564429
-2.1101058 -11.463257 2.1251624 0 30 0.097566731
-1.363499 -10.178298 -0.23895898 15 16 0.097566731
-1.0652926 -12.103357 -0.21208164 9 17 0.097587466
-2.1477504 -11.443263 -0.33884656 9 15 0.097589768
-0.73886675 -5.3729353 -1.5182486 7 1 0.097589768
-1.4036579 -7.4787207 -1.5218703 15 2 0.097592071
-1.4217412 -10.338703 0 3 20 0.097592071
-3.1176093 -13.056028 -0.15626991 7 18 0.09759438
-1.3041495 -9.483592 -1.4893116 3 3 0.09759438
-2.0253284 -10.790996 -1.3975368 12 4 0.097596683
-1.4575232 -16.5597 0.096617259 20 21 0.097596683
-2.1464102 -11.436121 -0.06762743 1 19 0.097598985
-1.4054371 -10.220141 -1.1112391 6 5 0.097598985
-2.6205459 -10.974409 -1.0532423 71 6 0.097601287
-1.886062 -13.715178 0.32214797 13 24 0.097601287
-2.6233995 -10.98636 0.13149768 0 22 0.097603597
-1.4025133 -10.19888 -0.71988684 6 8 0.097603597
-2.1216798 -11.304358 -0.93894613 71 7 0.097605899
-1.5333532 -17.421246 0.508968 17 25 0.097605899
-1.042624 -11.845808 -0.7621181 47 9 0.097608201
-2.6237769 -10.987941 -0.65790123 62 10 0.097610503
-1.8866456 -13.719421 0.80650455 15 27 0.097610503
-2.14393 -11.422907 0.47350714 1 26 0.097612813
-1.3924396 -10.125625 -0.47610646 17 12 0.097612813
-2.1213992 -11.302862 -0.60270095 86 11 0.097615115
-1.9049629 -13.852623 1.7168955 35 29 0.097615115
-2.1452129 -11.429743 0.94936073 1 28 0.097617418
-1.0905027 -12.389784 -0.5067243 15 13 0.097617418
-3.1901984 -13.360019 -0.47965869 1 14 0.09761972
-1.9296684 -14.032278 3.7953227 10 31 0.09761972
-2.1493819 -11.451954 2.124445 0 30 0.097622022
-1.3957511 -10.149707 -0.23840065 77 16 0.097622022
-1.1093578 -12.11948 -0.2124307 4 17 0.097642764
-0.75654113 -5.3626943 -1.5160918 9 1 0.097645067
-1.4290181 -7.469923 -1.5210859 15 2 0.097647369
-1.4622916 -10.365363 0 6 20 0.097647369
-3.1678774 -13.064501 -0.15650272 7 18 0.097649671
-1.3383497 -9.4868088 -1.4905413 3 3 0.097649671
-2.0614927 -10.776065 -1.3965266 11 4 0.097651981
-1.4923487 -16.303566 0.095152661 18 21 0.097651981
-2.1908262 -11.452131 -0.06776692 1 19 0.097654283
-1.4427704 -10.226987 -1.1125243 8 5 0.097654283
-2.6550839 -10.949712 -1.0517552 83 6 0.097656585
-1.9356015 -13.720389 0.32242712 16 24 0.097656585
-13.856283 -57.144073 0.6845423 8 22 0.097658888
-1.4464667 -10.253188 -0.72407216 7 8 0.097658888
-2.1581299 -11.281218 -0.93764424 70 7 0.097661197
-1.5937914 -17.411804 0.50885165 21 25 0.097661197
-11.877705 -62.088463 1.103411 28 23 0.097663499
-1.0832399 -11.834147 -0.76160645 40 9 0.097663499
-2.6583519 -10.96319 -0.65697098 69 10 0.097665802
-1.9367553 -13.728568 0.8074348 15 27 0.097665802
-2.1965568 -11.482087 0.47627524 0 26 0.097668104
-2.1563373 -11.271847 -0.6014449 87 11 0.097670406
-1.9405503 -13.755469 1.7056835 17 29 0.097670406
-2.1835992 -11.414354 0.94870985 1 28 0.097672716
-3.2330463 -13.333261 -0.47910029 1 14 0.097675018
-1.8523426 -13.130215 3.5530679 1 31 0.097675018
-2.1886041 -11.440516 2.1237273 0 30 0.09767732
-1.4300549 -10.136854 -0.23821457 105 16 0.09767732
-2.2138159 -11.357349 -0.33675203 0 15 0.097700365
-0.77746099 -5.3752704 -1.5204051 10 1 0.097700365
-1.4573349 -7.476439 -1.5234393 16 2 0.097702667
-1.8317101 -12.66422 0 3 20 0.097702667
-3.218241 -13.072783 -0.15673555 6 18 0.097704969
-1.3725874 -9.4899025 -1.4917712 3 3 0.097704969
-2.0975761 -10.761014 -1.3955165 14 4 0.097707272
-1.5261586 -16.055353 0.093734547 20 21 0.097707272
-2.2346134 -11.464044 -0.067883156 1 19 0.097709581
-1.4801675 -10.233697 -1.1138093 6 5 0.097709581
